-0.022638040784098062,-0.01708811382680743,-0.01820339514132161,-0.023900454963214378,-0.017412115989770632,-0.028674705879085192,-0.025895344962605905,-0.02925842221401493,-0.031138579653624737,-0.028122981894621424,-0.03175868373325798,-0.03914856815428925,-0.05232517757198048,-0.03757244185815281,-0.019626388072100598,-0.005140349672834978,-0.001381203879140546,-0.021996892676649615,-0.03736059686727683,-0.06689589367586243,-0.0812816050912349,-0.09094114151248889,-0.09831507363407926,-0.10418643530982419,-0.10121361390241115,-0.1042741021250269,-0.11639166949440213,-0.13311471464260977,-0.14161185099342524,-0.14372387884499746,-0.15157113714284237,-0.1474350959213227,-0.15036890490820656,-0.1421767270163445,-0.126096715399832,-0.12203199880029617,-0.12021914799894301,-0.11385860438213095,-0.10272782963018448,-0.10900874919506333,-0.11718751256300784,-0.11805777465458683,-0.10526526925052039,-0.08652725082470455,-0.06821404222380474,-0.058906062317669365,-0.052940155922251375,-0.037516899377562335,-0.02354364747235747,-0.025483775482929752,-0.017513143142517645,0.0028636305244701434,0.019355414896762783,0.03926013804826656,0.07118339009508683,0.08864891167670715,0.10485252675912707,0.11262033842492859,0.12901332357183337,0.13886340496640873,0.1440955897854641,0.1651677173188216,0.1852167705996811,0.20147411176379926,0.2099523592096451,0.21184389554137364,0.2201579269872232,0.21479352080765568,0.22383008199676635,0.21342839944832595,0.21524761501561335,0.20233455431577937,0.18950187154315534,0.1979862843059981,0.19651706594398055,0.19533505007369503,0.1932287693433552,0.20023515619553395,0.21226935270509942,0.20558284265528845,0.19342464177573937,0.18988125525262844,0.18768743509201116,0.19679298009872706,0.20117616175746872,0.21131153053402782,0.2093955071630846,0.20048607823074693,0.20230574771179036,0.21384181213056883,0.2037733514706338,0.1920106693486264,0.18785973800398922,0.18210548252028994,0.1822440235484924,0.18202076390564553,0.19336869539755522,0.20038796624795452,0.2008311560260299,0.20166208065110366
-0.010634847869111768,-0.009167985839527555,-0.013278696255142629,-0.009785587248177565,-0.010700537996567297,-0.025605940877154433,-0.03958723799595444,-0.04546537167667961,-0.03714110290088766,-0.041230579590154075,-0.03953691296985632,-0.05426112222067404,-0.05991154644657309,-0.04520376489935453,-0.04476327019113405,-0.03359886783220707,-0.021043985308294787,-0.032760889849676636,-0.045643933827221365,-0.065812491822427,-0.08462559271154857,-0.09225709320939009,-0.09840614531089793,-0.09994545093174055,-0.10739286889835656,-0.10668628078025306,-0.11162725857978328,-0.1253936853826974,-0.14043484894975605,-0.14000168051425066,-0.1287604292496975,-0.12775902165215638,-0.13240350251334165,-0.12775458962498135,-0.12407903678505099,-0.11650799862650978,-0.11068390209708301,-0.09899169820353224,-0.10030901638614426,-0.1026074362473405,-0.11397214097173661,-0.10871031448965715,-0.09968495861598789,-0.07526477143553342,-0.06953689126300672,-0.055828101913775074,-0.038338962539958256,-0.02196283010806841,-0.01584451236228278,-0.019095213761176635,-0.009301029605748154,0.00222896573851966,0.011419331541257571,0.04688787538911117,0.06071832180655751,0.07740204582678174,0.09935701607329164,0.11712831082405686,0.12525025876560297,0.1444103238253451,0.1460795339169411,0.17161393393778895,0.1864067772507379,0.19128847416163886,0.1983813303518766,0.21316756714915816,0.2173812949408664,0.22186773600970844,0.21794429779359104,0.2231233576671311,0.21595202734273522,0.22096606090350995,0.2123119794405486,0.20870995125833067,0.19670523664383088,0.2108965452031557,0.21978726033196053,0.2216026643040732,0.22508575825377458,0.2291157470515596,0.21789468546890595,0.21914059721789714,0.20985090553987462,0.21085794021441379,0.21369338292213613,0.21741832898363928,0.21678255416114153,0.21025935169015497,0.21760454775391533,0.2120070666851731,0.2143888951988405,0.20555846053045074,0.19183704056185927,0.19681460308203874,0.1906828521504234,0.19508888423156695,0.19191709524807346,0.19820477651644283,0.21299027650507685,0.2165012914008377
-0.007515298441922938,-0.01195784425197251,-0.02090361713117667,-0.020229588796429707,-0.025260692539023362,-0.0204710121658608,-0.030975486333086465,-0.04604000534689621,-0.052948111375712974,-0.04351423049111902,-0.05027706799411088,-0.06057942410216221,-0.0662989695506804,-0.061058406683300065,-0.05223445254985031,-0.043804647066241764,-0.031399119067925245,-0.039195495061971994,-0.05376793428527209,-0.06441544196346803,-0.08260340301042171,-0.07966107910841322,-0.0847993926442328,-0.08422187815868781,-0.0894926229567352,-0.09958816834747418,-0.11404938193571196,-0.11693654924946509,-0.12616631103358758,-0.132062621850002,-0.11755214634388261,-0.12306971928919734,-0.11661635986502997,-0.11274081142701696,-0.10459394321222444,-0.10753640406692554,-0.09818182670327552,-0.0891925511419022,-0.08262909568451964,-0.08883734890531561,-0.09869614954224015,-0.10150813396863992,-0.08870528856191266,-0.0721028751342725,-0.056102881557878626,-0.042384348055053964,-0.026092352021289046,-0.026929984066316047,-0.009013294031131196,-0.005968177750278408,0.003923488948743557,0.007029352476061335,0.027457479652437153,0.0490674023042339,0.06357447551671441,0.0893237899427892,0.1092232870964564,0.11862517058584852,0.1267879794283879,0.1437536064414131,0.16183713581927361,0.1762224919568109,0.19559120006068834,0.20176395356735824,0.21311226135567657,0.22162275153360644,0.21864849438966094,0.22232302829170983,0.2223360738271111,0.23329751803268634,0.22523083522698542,0.2238136276179785,0.22336520903040671,0.21776249349947266,0.22446688333601236,0.21681202936878174,0.23307820832652154,0.2289755920400807,0.24227226666296872,0.2371457362489269,0.22945471883911203,0.23532552108297014,0.23995531149572685,0.2341703704400194,0.24041973115382995,0.23253692859777275,0.22684885230255913,0.23187056727189528,0.2364108001698461,0.22566215514581364,0.22551870007298827,0.21954060259643707,0.20412901880701118,0.20172654584154917,0.2006419081874825,0.19754550254103917,0.1977464703394916,0.20191511753125044,0.21342485705025627,0.21152291005435514
0.0034472280880010406,-0.010579021225797826,-0.018715851059618146,-0.01594372368198197,-0.021435089290629337,-0.024637066211790147,-0.03584588129551622,-0.04042515485246951,-0.059955693499605146,-0.05615578989911552,-0.06807880312183559,-0.05992785697590309,-0.06658707354851999,-0.06384694786032528,-0.048176490129270166,-0.04460556822845285,-0.035050982193598014,-0.048893023496054885,-0.06970710080307092,-0.07396849369096856,-0.08288425494857804,-0.07305179775834694,-0.07433635063313997,-0.07756446511640837,-0.08797326036356551,-0.09081425659405104,-0.10577186953902826,-0.11216515568057531,-0.12835560536751017,-0.11459427982119882,-0.1120278377389318,-0.11754839120076302,-0.11717885463568493,-0.11019297742983708,-0.09029404593910215,-0.09369533500664046,-0.09517082282866893,-0.07678831576835275,-0.07182756905773557,-0.07581466314572219,-0.08173377699671987,-0.08097755451767999,-0.08050405566075985,-0.05606231060538074,-0.04524232548130153,-0.03549364213587689,-0.019363593938216243,-0.008390144208601921,-0.013825960678991887,0.013786687269922316,0.028377340135916414,0.026542559107177913,0.028698048045568122,0.06082905567197555,0.07826203301262463,0.09956535649385173,0.09945009211674594,0.1233916397840175,0.13315154963304385,0.16408573072210159,0.19801752086531937,0.19818610104194845,0.19930750928149582,0.2037859641392271,0.21443121708577378,0.22582433133913646,0.22759478434874167,0.23115477924504568,0.2452783262790051,0.25305155029070986,0.25100240350107217,0.24104307431794417,0.22481825227437155,0.23587673451942723,0.2378092241497668,0.24359934656750537,0.2390934662349124,0.24232195592883937,0.2516974910802003,0.2541905034828369,0.25530655449137496,0.24679943053499162,0.2639651463762295,0.25957240601316944,0.26407165139682054,0.24665978782806397,0.23510016814988743,0.2334169862003001,0.24541274402679616,0.23711008115538923,0.23653387915986077,0.22894039299917188,0.21687141784072073,0.20096752218329356,0.19753238201981102,0.20601057386111538,0.21801359688662314,0.20952513253301777,0.20333399244832934,0.2097981713611981
-0.011311651756767687,-0.0203481660568781,-0.03097963858061784,-0.033154819147011204,-0.035866360457514304,-0.03673076232506586,-0.05384848848430984,-0.04896812267716644,-0.05634444929465889,-0.05517373769052701,-0.06233948648526044,-0.0691607850978299,-0.06672554109764524,-0.05959462643991942,-0.04642303814996763,-0.05241221384170194,-0.0552581024751273,-0.07033336489034049,-0.0702636690664363,-0.07328001070805813,-0.06527363024561961,-0.06780513357676823,-0.07505397342909521,-0.07031788279027648,-0.08166058139502314,-0.08846354549876204,-0.09941081839853146,-0.10024841313078094,-0.11415513058032659,-0.1013049992116879,-0.09723338406764766,-0.09260957484452943,-0.09475022220079633,-0.09011332226553935,-0.09244538543068753,-0.09514271600963212,-0.09311515321930684,-0.07342498885546943,-0.07105765755033856,-0.06311328630258375,-0.059437197426601106,-0.0659190168339099,-0.07025505574809993,-0.05578282384641437,-0.03869013350552504,-0.022521112584236967,-0.004215571493073006,-0.0009222868465647398,0.009832428299473372,0.026878043124403193,0.04011876385261617,0.05171641817589309,0.04942860272270229,0.06624964972962281,0.0899254098447663,0.10173921716763197,0.11525752995517768,0.12896938817084966,0.1570899249140535,0.1747015503872724,0.19024049377990193,0.20644931962142,0.21857607263901807,0.2210706191393452,0.23097445656694576,0.24427494295523847,0.23839482728094996,0.24477374007398967,0.256064762677892,0.2605982620277619,0.2621655868857933,0.2557406810416893,0.2392972832488133,0.24293197632824504,0.2564393675114216,0.26121110219533367,0.2514914678091277,0.2522626761057807,0.26617718820394143,0.26500850263037223,0.2596590737975738,0.2606627893748421,0.26282181000171806,0.26418057484894364,0.2699954155927262,0.254315366228998,0.2491779147063865,0.25027826726239394,0.2531852537212789,0.2504189745640021,0.23740316074625334,0.23288895339898,0.2348080149802382,0.21465491547036128,0.21463026352002196,0.2087063066202668,0.20926748899373543,0.2030960888271212,0.20532665809466694,0.20551280221682836
-0.029675734808100818,-0.03009470894265446,-0.03880790703554485,-0.043495740552600276,-0.03356849616229886,-0.04735624893022787,-0.06669557274611414,-0.06534322712499435,-0.06125148683456077,-0.05369082777911283,-0.05356124977472666,-0.06035674415682522,-0.0630943895588639,-0.055701052364240826,-0.049513332443607797,-0.05928015410613969,-0.07018507004436707,-0.07767218795025328,-0.08579299278963115,-0.07466829123106893,-0.06662932822603539,-0.07006266909044304,-0.06930576759124799,-0.07614575020032885,-0.0657304284362322,-0.08296374045274442,-0.08992666511773993,-0.09867171102190216,-0.09967156937375489,-0.09498242762707707,-0.08215218953172827,-0.07736447616719674,-0.07159658527021905,-0.07212731856076118,-0.08429655899232578,-0.09140139250963616,-0.08586239368648392,-0.06820991327616432,-0.04992798244344033,-0.054209999602810706,-0.051919471336010804,-0.04534519890540879,-0.05218307285236788,-0.043050008480860824,-0.027895359429325396,-0.011953048033036099,0.010374168683200185,0.009859767677435842,0.019184575060401506,0.03838109787815178,0.05118353885026323,0.06935350947572722,0.0732149691908836,0.07856331604187755,0.09332751316858127,0.10859192178734883,0.12908440617960326,0.1371702566271578,0.1671866959977879,0.17610730199842634,0.1996011800518449,0.21242053073385259,0.22433680139101206,0.2471904164728659,0.25548797357005415,0.26448643104730507,0.25714406247373367,0.25216954581681816,0.2602069202141435,0.26489687370853204,0.27369213293944256,0.2697817438757406,0.2579468114976222,0.26097640030862296,0.2690655229746933,0.26410782664198346,0.26813835267187625,0.2623792719619373,0.26570043985410075,0.2624686626824584,0.261273434078063,0.2637832230816383,0.26445355444009344,0.2639971004992703,0.2674646419799044,0.26955578064976293,0.26741709269127123,0.2707664028330399,0.26283353054711717,0.25364267801633944,0.2579879286832984,0.2506627807985754,0.24636825288245812,0.21793386594569295,0.20827437079062716,0.20126720734545883,0.19737827304273925,0.2078177521259777,0.19978073310698197,0.19797132076516233
-0.03540628954790671,-0.0356139718895825,-0.042253135077461715,-0.05228028185857778,-0.04922498095574651,-0.06293424636749596,-0.06592342859999137,-0.06820599952618282,-0.058977019357502984,-0.05739887115635277,-0.061391124432044364,-0.05452885150598434,-0.06496731505399683,-0.0533708967608102,-0.05599812166218051,-0.06274420628977641,-0.07046570520298395,-0.08313060291217397,-0.0883291800171699,-0.0815072617975338,-0.07042431188929656,-0.07188773834486864,-0.06682844049896314,-0.0789425167310214,-0.08091739054124208,-0.07913883697294956,-0.09202908770586808,-0.09013194222859615,-0.08908459664272027,-0.08748979901998756,-0.07306452963255892,-0.06969100172670599,-0.06345644991024922,-0.06366976872016657,-0.06631124933819602,-0.0714865362892123,-0.07513828508691904,-0.0679975988183207,-0.04835380725972182,-0.04024701289161156,-0.03494040611041198,-0.03980205876012721,-0.02247210600216492,-0.018463221130252658,-0.009209174512068508,-0.007572004837807897,0.007385546193485748,0.028956649202675953,0.026103136463119625,0.03841801311458598,0.05297587500108347,0.08010562569919802,0.08562440036142155,0.09270605717233367,0.09192112091453525,0.10039310848948116,0.12755750963164927,0.1499128221426272,0.17057087266301077,0.1845797831533027,0.19542012413560353,0.2106719237866165,0.23055805649400932,0.257964375381269,0.265101235973217,0.28086424889366,0.2795557965577216,0.27442149136839766,0.26329147775855244,0.27121247621476896,0.27321449173283163,0.28322458347602775,0.2820285572772395,0.2882890920178507,0.2856972469173911,0.28648252502829435,0.27885932617943804,0.2733985781807829,0.28651870526413614,0.28585151257877706,0.2742754453209677,0.2706756210713562,0.26463651764936313,0.2732867580929691,0.27825394482378774,0.27424788016859764,0.26817273803679775,0.2738992465582628,0.2702307024312187,0.2656475291757508,0.2516191720536676,0.24941979199903963,0.24042223380986294,0.22656596583754202,0.2171081331433809,0.2133080619212066,0.20991496523670564,0.20377626003390859,0.200375171004138,0.19287622936097398
-0.03749100603899562,-0.04426925526417348,-0.05858261554789781,-0.05604919290179565,-0.06861800107252834,-0.0623312317049702,-0.06329969467785868,-0.062067859870349906,-0.06447960439109006,-0.05788823499802632,-0.06660636788909075,-0.07129174802307754,-0.06446759119293705,-0.07029780939027726,-0.05984619727453164,-0.07479918907412186,-0.08125886011019542,-0.08276491858895929,-0.0912790287565821,-0.08407142656522822,-0.08376258071619694,-0.07631579835308065,-0.07827067959671573,-0.08221178979808182,-0.07298094448917695,-0.07215346875928631,-0.09010142359927162,-0.08662604395726951,-0.1038441522584981,-0.08582808759837293,-0.06895773125041159,-0.05854369682338713,-0.0362246949678688,-0.04400818363923845,-0.04743403667110214,-0.065575004687131,-0.06202785310306181,-0.06222269459073551,-0.053795546372828684,-0.03596418122726678,-0.022962282175004185,-0.021479121827607674,-0.0046038063625168865,0.0016749751385106747,-0.0023243185361198487,0.012795497920328396,0.01589831754853693,0.02568205038994029,0.0430010053666884,0.053592923440661314,0.0695898607491383,0.08821413756317688,0.09836135848999766,0.1007324451655037,0.09371936185409199,0.11360488125686267,0.11424466837958784,0.140891160941953,0.17458550929188707,0.194651499304425,0.2001252452668178,0.2133698390972422,0.23976877398743993,0.268181217761586,0.29441810631048937,0.2834147096655485,0.28665523475822735,0.2693360096026349,0.2684175322165838,0.2753120003737618,0.2805519994481361,0.2834135471591598,0.2964183122081542,0.2931636173363397,0.2986874082688806,0.2993037348045168,0.2877539807587909,0.2926288786061774,0.2977993055627267,0.29349634898184696,0.29767958238454795,0.2874376151389029,0.27700127320641244,0.2852406701466631,0.283294095527501,0.2825486336197158,0.2715051102445156,0.2826356714747568,0.28237593684257906,0.2640130122749088,0.2555766646406571,0.24798936823887208,0.25072638445500567,0.23320500647185208,0.21976493162580046,0.21038999959347926,0.2010890833385415,0.2029991670430466,0.18598955259759956,0.19602230047580926
-0.02268219308648343,-0.033178537041894246,-0.051161674266190026,-0.05685580485621479,-0.07162066502624188,-0.07010443218359508,-0.0667493244690395,-0.06447467332189126,-0.06483961171719839,-0.06256159879329118,-0.07149204053959553,-0.06980011649941593,-0.061892798556565314,-0.0769310822200807,-0.07785343838174831,-0.08745854596241692,-0.08344198208250994,-0.07638220750978042,-0.08621100555896416,-0.08187352572916659,-0.07722988098185506,-0.07659375258671136,-0.0764765039557175,-0.07335857498082599,-0.06784808155589503,-0.06885077830505901,-0.0688444677595405,-0.08331649875628677,-0.08558269666306668,-0.0728350171192912,-0.06904595808103714,-0.061845039040587364,-0.046033004913457125,-0.044568298847374135,-0.0540384776812422,-0.055602197308626686,-0.04272973194334695,-0.041421150259364964,-0.028477601248829934,-0.02180771872476909,-0.011418487143473776,0.004738746463160071,0.006055245148006623,0.010998631755100238,0.022382342725303976,0.020029750645803306,0.029444763466543608,0.04037804154370406,0.05443746490335041,0.06245533089937008,0.07306236175387563,0.0950284267606639,0.10611339955807929,0.1096423191011758,0.1099833056340646,0.12611007193180176,0.1271218078448763,0.14950264705555752,0.17462214328368675,0.19252756145310623,0.203211455874671,0.22491582016054032,0.25069197481549665,0.2700274149530468,0.2891104586296471,0.2995752619731446,0.28786012119314786,0.27820922927541475,0.27139987587616404,0.27139461169970464,0.2884696095943493,0.28247175852181305,0.2944467703375106,0.29812644995376847,0.29401848602307945,0.29654890754900487,0.30456608640642474,0.3058102774358775,0.31205563772185446,0.3161269812563808,0.312476154913991,0.29746810595449935,0.2966766992502903,0.2983078661072991,0.2924973944182584,0.29459376582203833,0.2924127454947861,0.28287834363683934,0.2879174722189323,0.2762709373576867,0.2622448717706351,0.2561509086837248,0.25130259546750716,0.2436919457549207,0.222047058982166,0.2103585624431401,0.19332556684408508,0.1943192184585934,0.17884130556716005,0.1782124305326842
-0.02376982388779199,-0.030190795085624413,-0.03673405556950862,-0.052908804200475626,-0.06457552621445532,-0.05514481571929554,-0.05696235625070083,-0.050228621700956544,-0.04983725138427346,-0.0578822370744812,-0.07386341735668189,-0.06644401367186348,-0.06608242714475866,-0.08675114457336026,-0.092573980470272,-0.07889196093220607,-0.08700706256916813,-0.07188694142349217,-0.07103919890128652,-0.07149804119898898,-0.05812011360289471,-0.06348459744034085,-0.07939844348994235,-0.07690747259318316,-0.06437576041114772,-0.06196486838255089,-0.06345945209718834,-0.07213768475581707,-0.08125665657709591,-0.06609814097016653,-0.056652415887705684,-0.05801703717608601,-0.05487914752192885,-0.04523154112669043,-0.04732330838635618,-0.04014680219694279,-0.037762227859142364,-0.031501714929082096,-0.026553669538835933,-0.0058540732937098355,0.007151396668293306,0.011093635400036165,0.024016405136253735,0.03412984619432621,0.03806803065116114,0.03762714409718379,0.03943874034613806,0.05626023899040225,0.06040296306455055,0.07909325754841914,0.08765970262491618,0.10056714456094969,0.11465333128567605,0.12335634898044023,0.12246041264465943,0.13071911370283212,0.14886705714433487,0.150606834296393,0.15984167272017427,0.19734953948468936,0.22012881962117545,0.2405618642559793,0.2511062294787831,0.27124779249436687,0.2956634048462167,0.2985718049567669,0.3009468798033402,0.28165802897365527,0.27740764114342076,0.28471058075762967,0.28821836410116974,0.2850450248885479,0.2789599235992558,0.2895328122230326,0.3038516084785592,0.2986196169775306,0.3148186365163216,0.30832057074022806,0.3178427451290255,0.3230548160371432,0.32251329194271716,0.3013320087483889,0.2976950622560101,0.30424294649854744,0.3093981248362216,0.30779221127479856,0.294392590064416,0.29023981300516943,0.288037174936163,0.27948949779520793,0.2831605411555936,0.2609659626619628,0.25372109085401323,0.23367413291050923,0.2211153254299298,0.19863420093880746,0.1875997903694452,0.18425337298629346,0.1845087463320188,0.17377547792213863
-0.014864813719323595,-0.019256797806911863,-0.031200651215688602,-0.04683664658864989,-0.056240381155519416,-0.05674267838019141,-0.04404951187719607,-0.04380979116417177,-0.061555827618851096,-0.06482004758203833,-0.06251012538863372,-0.07413483675870236,-0.07880075769710906,-0.08790145108183944,-0.08494900820460052,-0.0792393022955845,-0.08031045069402487,-0.08379685836780496,-0.07949392375596444,-0.06258853498125375,-0.0662395396929549,-0.06250559352486587,-0.06557580209112457,-0.06867968491614763,-0.06292570769382387,-0.06461720301103056,-0.060494684447722394,-0.07437766793017962,-0.07224347761259653,-0.05805151397110992,-0.058970305090000834,-0.04357508163899822,-0.04135135186347575,-0.03767464829948122,-0.03142023918545634,-0.02012885986997448,-0.019188615140640217,-0.017065583046081353,-0.02165522237448122,-0.004531473005882367,0.016602361707765415,0.020316480583096198,0.026734300292688695,0.04131749408862123,0.04360539775325554,0.05054631123745598,0.06026410940341563,0.06864743465370778,0.08745271958425262,0.09331500354503536,0.10344031858212537,0.10327480220825393,0.10078826918827496,0.1168547577848455,0.12886021449285678,0.13732239306046481,0.15768661375173787,0.1621476156133904,0.1704036234605601,0.1957016132002227,0.22123100287489522,0.24385264485484892,0.2535198087734789,0.2791877562766192,0.3013065602007361,0.30589440380233607,0.3057529926019493,0.2970338752758709,0.2914454493780652,0.295147138148584,0.2968646439727001,0.2919261888624805,0.2885859696413086,0.2885480656155284,0.28932213743403945,0.2974160480133151,0.31068204404368416,0.3143375126322538,0.32144073239285303,0.3282938001010065,0.3343009517723283,0.3163961541206293,0.30255973405452713,0.30737452204320226,0.30483934730175477,0.30910578184967313,0.29859905947958404,0.2931232734563663,0.298809673974313,0.2845212993632861,0.28680828416092413,0.27482844288316544,0.2711673924173273,0.246569010378407,0.22439163849596536,0.20211958649108394,0.19698164277307084,0.18245148361557118,0.18227061012551232,0.17674613810415693
0.0034608364358685584,-0.009875857348705469,-0.03144483484582884,-0.037914533044734355,-0.049071629854370136,-0.05099899721302492,-0.04101875323373503,-0.05558340436046201,-0.0573676225886648,-0.06320378690653822,-0.06533437901711114,-0.07505117483462238,-0.0922665559003762,-0.07838847604535941,-0.07754469830788858,-0.07661002392392077,-0.08060644719771726,-0.08397436023091787,-0.08376954484962496,-0.07209550932039334,-0.05526365377116049,-0.0561519535792441,-0.06340579908208613,-0.07621251910713575,-0.06877401845785058,-0.07214624274359827,-0.0706088588953502,-0.0757644142234864,-0.06186195273869661,-0.06322411482248304,-0.06242289467314757,-0.043142505326037923,-0.02684305794994786,-0.031090621255775053,-0.01710971886687415,-0.017894425081264362,-0.006525597199892735,-0.002874185124424016,-0.008509939302391687,0.004621870188988892,0.018445203963186316,0.014476169473656635,0.02192442232381078,0.03755287682355264,0.05489852131684425,0.06337028971500269,0.06909358826864517,0.0772190044109071,0.09925270474391706,0.0980650081010988,0.11323021247014456,0.11198001767246003,0.09716483430889561,0.12288534052613266,0.12316152460223903,0.14833089432368843,0.15995738113079302,0.16160375198625407,0.17079686440497494,0.1957224055576746,0.2148458667564877,0.24779755731811287,0.2586859018869867,0.2839002476762923,0.30758671144873034,0.29988592344356385,0.30652675927167367,0.30686050602581194,0.30090015147214677,0.30552267622859136,0.299442720355115,0.2939235778066127,0.2869162958158038,0.29342448988456465,0.28701110336038116,0.2965908507849344,0.30143663416100136,0.31941463890199506,0.33295699349166863,0.3293087168389772,0.34287141041699654,0.3267459671015404,0.3084614196979684,0.3108101296008462,0.31937930162395456,0.3132022333764897,0.3150747056859378,0.313995078893596,0.30580033479441787,0.2886783785538344,0.291752905048701,0.2847176744535073,0.2802084808184441,0.25167214986820596,0.2324392673623024,0.20753112716430802,0.19078617151296517,0.1886048413386801,0.17543539278861964,0.17745772074835225
-0.0008905529369800996,-0.021696696170303217,-0.029088899278060756,-0.044106778933151555,-0.054004285994894534,-0.05065153125408464,-0.05307703835674841,-0.05327012085884332,-0.05341092379165564,-0.058179154504893575,-0.06858460752576585,-0.07376346495458118,-0.07294500490666066,-0.07832974835180243,-0.07947730369738065,-0.07744326440447186,-0.06897520821765968,-0.08062721476986165,-0.08046890200520122,-0.06614338207109594,-0.06641705869938405,-0.07437986583709881,-0.08140097749937453,-0.08491041405377114,-0.07477745882510034,-0.07181695107967392,-0.07958452310125955,-0.07325808798301409,-0.06538847937878162,-0.06813699966441615,-0.06492314449523498,-0.0469287247727691,-0.04286176275784061,-0.03715727110565846,-0.023276446474166608,-0.012017874302834497,-0.01573208525216064,-0.005231187488431124,0.0007834123282939318,0.01768389994510637,0.01697351150213297,0.02327573035432757,0.0342988972811762,0.051888438365280454,0.06443238843053167,0.07590263990853752,0.08655820581523067,0.09186191039030231,0.09582873211966611,0.10877486346956253,0.11798176492696576,0.11617446732209366,0.11808300314128245,0.12986661107817885,0.1405300088037817,0.14842936942487786,0.1659100356012448,0.16790678310777774,0.18003916191340671,0.20714405499498156,0.2225925463176571,0.24346357793988027,0.2667084189216125,0.2776665627620524,0.3023286856651032,0.31016483601306083,0.3068487261404756,0.3137536627124903,0.30906903907153666,0.3042869657709566,0.31201581632045355,0.3044159183468386,0.30171204198715573,0.30513310763351487,0.3041419205067489,0.30717672549605485,0.31366775997874075,0.32120868935162283,0.33104996467601844,0.3372888320580887,0.33749300988349373,0.33119022371751927,0.31869256061896833,0.3222179018105992,0.3146677951862848,0.31607413758663533,0.3151647356197987,0.3222950370646209,0.31703479601446827,0.30044892616909585,0.2926141092094391,0.28182275716040905,0.26464094549047873,0.25125791800621256,0.2280677602970778,0.21505854153737852,0.21018756158157148,0.19842192907929707,0.18809802295200972,0.18522208682519012
-0.005487658458982404,-0.010771501532196488,-0.02507008043135773,-0.050074972211402474,-0.06037409423501697,-0.06025073252972287,-0.058577348708064365,-0.06365186341007535,-0.05689982708079262,-0.07191355516001476,-0.07816113709566185,-0.08257582594480636,-0.07800427012515615,-0.07223572583189493,-0.06952202983956665,-0.06863195153949048,-0.06637034399213113,-0.06892170477262957,-0.08123860702119456,-0.06990080858647794,-0.07045758172473217,-0.0886978611968478,-0.09480858846297127,-0.08887366004447428,-0.09032699426494023,-0.08972769287817607,-0.08730968501597934,-0.08841075241998762,-0.07369624528735572,-0.0663208318733411,-0.06672360425016714,-0.05716626995417759,-0.04486008970371187,-0.043185056524206546,-0.030897416162543098,-0.023098857665338347,-0.016097379707366438,-0.0034460410417025064,0.015916933961206033,0.030866061016305534,0.038016494021650825,0.03730969542251375,0.04125129502802407,0.05497097519881415,0.07491696277787396,0.08029857941723083,0.09926218498843542,0.09966020268839099,0.10173056835568416,0.11101955900368385,0.11650107643621387,0.12753268728813735,0.12280851903918813,0.14814640385225397,0.1614477347152702,0.16543772693490666,0.16829178388361493,0.18413520025090532,0.19290895707182382,0.20734048279730571,0.23616131141043017,0.2546016432840852,0.26530852420912615,0.2814384094660147,0.29313979630651305,0.3033510085760408,0.315577303371262,0.3114421696488456,0.3155360305883329,0.31455944774746686,0.32109881895621595,0.31139285338520467,0.32163398092957457,0.31734095156185627,0.2967761217328288,0.3113174813037647,0.31634862873244934,0.3128703605720553,0.3185681122054068,0.3421360619341439,0.3468741342130811,0.3433464016644621,0.33398199604299506,0.3293735212870029,0.330542766869105,0.3246510711608436,0.31983205096609957,0.3238930896970873,0.32201474947841996,0.3141527756367254,0.2904186234934362,0.2830604594656004,0.2746811040849737,0.25930896059296904,0.23845290868236949,0.22800921842092825,0.2088513997033384,0.2083802269298959,0.1981465949379275,0.193715645454923
0.002322314563448974,-0.003515024775077971,-0.029255614049721185,-0.048687351042145936,-0.05401030402049764,-0.055728044783140605,-0.07039870587051604,-0.0712447469968853,-0.07008866751592781,-0.0736940686517497,-0.07811595852603952,-0.08087508994907808,-0.08390321472561094,-0.07463684288500687,-0.06680512413854077,-0.06110719435377298,-0.06403902679647688,-0.06600712205589679,-0.06985678670992607,-0.07345270882778125,-0.0878801014276733,-0.08788961244361827,-0.08921429412606124,-0.09923673770832293,-0.09994841621301839,-0.09076597972707093,-0.08709075181899091,-0.09131214815221657,-0.09082396132845325,-0.08310304842038982,-0.0670240398358889,-0.06375062717338131,-0.05374585966362538,-0.05059528127694611,-0.035098877292085245,-0.03372412731132987,-0.021970625172131848,-0.006366624072521659,0.01652307155407086,0.026732167373303597,0.037153903400780744,0.042535388437169586,0.03853542797302543,0.050501508343490806,0.07654053401646575,0.09354791113288868,0.1050684843639593,0.1041241135844371,0.11019172041835554,0.11464455754147934,0.12227503300149714,0.14136736189377597,0.1419249297724888,0.15762600067295446,0.16436902777417406,0.16843583076666865,0.17781482042524338,0.19551370375936014,0.20755923093203385,0.2186909024585719,0.23513642599154638,0.2452547515201707,0.254781581410165,0.27958226440489914,0.29113557227488324,0.30407254472906253,0.3192152010181007,0.32220166514200194,0.33147547643428343,0.3253377720018858,0.32516149209372913,0.32032322326966045,0.31414609557560375,0.3175648023045953,0.3033181284201327,0.3066398492175826,0.31635564221354934,0.32304547966064495,0.32892084493309987,0.3443702552189162,0.34776911604659005,0.33847702598495466,0.3422359333256759,0.33389472519023305,0.33441177566795277,0.3318576975079944,0.32814237126445944,0.33036466179956553,0.3329680442285795,0.3170420650841879,0.2927635071649991,0.29179799094845077,0.2867669326572729,0.2729580862152045,0.24431150443479732,0.22825156433353844,0.2178594846738277,0.22149345633248008,0.2113151468424353,0.20966340868104
0.025151220923107252,-0.009191096216069942,-0.03907514523221303,-0.04494535792391091,-0.0625450038128508,-0.053685574613831256,-0.06572593902382462,-0.0758095083791144,-0.08808378415626196,-0.08169123528190085,-0.08536300468667223,-0.09088800490008704,-0.08675387658455068,-0.0753562240252831,-0.061956980956361596,-0.05622341635616614,-0.044756040718855444,-0.06842126336065146,-0.06845345022775162,-0.07593695314373318,-0.09922865347749797,-0.09129371456107843,-0.08691703608651284,-0.09144518650327697,-0.1164121189923077,-0.09077682395132966,-0.09235346079156635,-0.10319177358585639,-0.10129672384620929,-0.08519649452613746,-0.07898783041313098,-0.0705266395273606,-0.06873162862274976,-0.0602346708529086,-0.05393342779734951,-0.030143227384421732,-0.009806492335717242,-0.0007987501054742135,0.015470864744275586,0.020836353845300797,0.04119829543340714,0.04215113365114341,0.041043928531213844,0.05773123370235818,0.06936312279790952,0.09033772568678364,0.09950266327683434,0.11216271044508756,0.12164195804462094,0.12498310193483096,0.1403326340701906,0.15043311191146183,0.15463864177165854,0.16271234163538545,0.18098942878447496,0.17977619936846417,0.19291892610968034,0.21128435749668265,0.21861340899851467,0.22434825362024063,0.23359760182422215,0.24164212946273544,0.25861240187191714,0.2765338152970289,0.3043820554181375,0.3053494946032764,0.31600383591696474,0.3281186545707151,0.34237772719548576,0.33291937201405974,0.32080135096337914,0.31943340664257874,0.31929474123172774,0.326497145463637,0.3214590581862904,0.31104856840907774,0.3094172041623735,0.334297719017797,0.3438746043220443,0.34328863664483994,0.36129806887801297,0.34423430291607976,0.34258357475417606,0.3366378347854312,0.3148122690309788,0.317813874605733,0.33499757880779246,0.3396695563968807,0.34294225819066676,0.32283743617239874,0.296878592598665,0.2988766676137897,0.29073933455747325,0.2745682242956896,0.26146456484480285,0.2309865935463266,0.22148347824103456,0.22381478974048652,0.23393427629472707,0.21873169864709774
0.010747793708269542,-0.019404655742766078,-0.040264831538131846,-0.04571924290646926,-0.04302104747347563,-0.058846975443963334,-0.06251119787223355,-0.06663098545624987,-0.07323244313636555,-0.08096135545389262,-0.07455028874778313,-0.08064634400191623,-0.08375462786650616,-0.0793545871519015,-0.0782468797448942,-0.06514381345937383,-0.055919724762577616,-0.06358780240272817,-0.07106004623736167,-0.08606231991239569,-0.08713206247851707,-0.092131858140474,-0.08469426520239029,-0.0847339525308773,-0.09199471838037988,-0.08774418173754572,-0.08552726816415708,-0.0978670032678515,-0.09354753540420752,-0.09301343731636345,-0.07830374734760438,-0.07702783710763891,-0.0728134399089726,-0.05561012390085474,-0.041994698404335715,-0.03151062294192685,-0.019834732266453797,-0.0007621500702321843,0.0076965954824216015,0.030252080716381205,0.042374571698264106,0.04538152355867622,0.05686696546045497,0.0627763696364589,0.07560946429094267,0.09195097977283016,0.10112983534374097,0.10447223564006623,0.11414583616143954,0.1299336006259004,0.1429126098249207,0.15268348974897053,0.17175401726863845,0.1822586450798138,0.19459653159209309,0.20006404203857273,0.20950553793177043,0.20948136006362833,0.2239798765096542,0.22858659893460564,0.2402030680426457,0.25043457902243077,0.26496418367742897,0.28438672688294225,0.30260451760222,0.31916399085878455,0.316338450302268,0.329769643298889,0.33545289725609645,0.33855290800277055,0.33861240130824866,0.32437759125420224,0.3229275680860293,0.3291914258573694,0.3320689666750486,0.33010518505892855,0.33597938455142795,0.33537382741722155,0.3350690232070768,0.3494624235642802,0.34639249955473816,0.3332775904469681,0.324831511292316,0.3267777586072702,0.3213683160699147,0.3124221612935363,0.3137315819291015,0.3224910697329404,0.3252959658067432,0.3203264537158486,0.30253410739714653,0.2855196783919885,0.2762720899199251,0.2593686440274103,0.24713521659904278,0.2374306483666655,0.22777087811638344,0.22643331589885818,0.2193633805231119,0.2210713500613776
-0.0023257581980002783,-0.028317821229421183,-0.03933148863560722,-0.02984277609053323,-0.036181527327759574,-0.051122115913906224,-0.05395699578551157,-0.06810939022164403,-0.08516592115200755,-0.07308867346949223,-0.08078780428398406,-0.07462631463129085,-0.0718950726516049,-0.075293655867636,-0.08619141506742671,-0.07681654697810023,-0.07876556118705196,-0.06877228800935231,-0.0666777080943762,-0.08293260507724934,-0.08446601015461971,-0.08748875335527323,-0.08477291533548101,-0.07479413053311573,-0.07956444005882662,-0.0847422454695666,-0.09279437551255149,-0.09487686283625127,-0.08803903908167507,-0.08415980847525034,-0.0791483239115349,-0.08243532098519815,-0.07045325162516551,-0.058544248569463296,-0.05353337776851752,-0.0343177279872456,-0.030352865282423994,-0.0072991557421018885,0.0038768444613089363,0.034269937835671865,0.04930794004676802,0.04191874325081345,0.0544225859495641,0.0740973670205921,0.09400315426857245,0.09168850963169142,0.09741737088575128,0.11249367147388645,0.119860473333499,0.13159671996341438,0.15133942216037613,0.1664580166548422,0.17621039295682156,0.18165089752806507,0.1965421374132379,0.20992667686156508,0.21750587190095572,0.21962210399134774,0.23430753447109756,0.24508225364044875,0.25148283986303394,0.25950241675972036,0.2805358523987084,0.29952860878470994,0.312640786960487,0.3147607980711833,0.3161046611317731,0.3387426821034434,0.35112660860737527,0.35422302476729517,0.35393829948238875,0.3455633370680465,0.334543881444376,0.34093389390655854,0.3342222390221838,0.33885683339243095,0.3417921883793402,0.3297028432732819,0.33836481970785276,0.3465481711723672,0.34278986454110133,0.3199102472689075,0.3102562116082051,0.30459175170956954,0.3087286590034648,0.31079510952783157,0.3038846080482901,0.3082681502100869,0.3279135632908525,0.30765981272439225,0.3067908646629156,0.28344316319221097,0.26315557754346397,0.2518731640660773,0.24233324180530094,0.23773762338603396,0.23356750417356043,0.23442735567066575,0.2189465080280975,0.2166911371663676
-0.01635827011504179,-0.034718032188799236,-0.026793066305890983,-0.02650186502434194,-0.024116825788475682,-0.03651470808547604,-0.04480937978525722,-0.06727362773458256,-0.07242511344701054,-0.06697327718247598,-0.06998015055197036,-0.0755801066944501,-0.08901875929002243,-0.08487340347178739,-0.08755726569001127,-0.07933349626194491,-0.08100345302887832,-0.076529442474537,-0.0685693458950353,-0.07045040220068029,-0.0800862083055465,-0.08465845667181282,-0.08476760590725824,-0.0754904597830024,-0.07110183688235372,-0.07979982449409496,-0.08955039224203462,-0.08483856693069823,-0.08394042679654937,-0.08922930604410609,-0.09231606693830349,-0.08679133431664085,-0.07186556102381325,-0.06483209611741893,-0.05977150535961903,-0.05175263477529309,-0.030831341213953554,-0.01174896992550971,0.006660166778485563,0.031204489795685658,0.04255485458369537,0.0464680112615245,0.049503851870135916,0.07427474023609684,0.08246912549215141,0.09230960682846073,0.10787363598708077,0.11418239160492855,0.12444945987683394,0.1440803832419088,0.15278181156082812,0.15982197013614435,0.17486289418232268,0.19343773120780522,0.19479681238486357,0.20372676366250722,0.21757339438709616,0.23117281536417203,0.24304840066495165,0.24377149043692214,0.24801732446274408,0.25934389422086296,0.28245615028346405,0.29556946045974863,0.2952034256261328,0.3069104794049033,0.3223589832160957,0.34043508213342244,0.3558869128833233,0.3564603404937724,0.3554558674560883,0.36094874159969126,0.36239368542753486,0.3438792109569993,0.34544940696008697,0.3376839564747333,0.3307563418172574,0.33448718418327955,0.33124059448978865,0.3280991157378263,0.31805579257835304,0.31792888878586256,0.3013537332933177,0.2955880728019623,0.30567117783461273,0.29236071460904295,0.30235313760835353,0.30329108288367534,0.30316140097413147,0.30402252692880244,0.29032367936715275,0.27942821753053704,0.2649213208250858,0.2496190247195132,0.25533951356215884,0.24795714339134578,0.24340083205793034,0.23552704740252323,0.22237491005839413,0.2100134958003573
-0.042492114412052286,-0.03183853149847578,-0.03242505493052244,-0.02484280686754859,-0.027545552542652257,-0.041730048934447116,-0.034025642044020254,-0.05856468502618155,-0.06647317467231464,-0.05789626344109346,-0.06632678753246764,-0.0754291463830757,-0.09292908287986588,-0.09642326545490357,-0.09363126678804347,-0.08982001256360538,-0.08415133764519547,-0.0813358395309921,-0.07074743294086897,-0.07003309205335893,-0.0823866041780276,-0.09010447513885021,-0.09278501943193601,-0.07837926551628524,-0.07450430506337594,-0.09205550074439961,-0.10262341089108379,-0.10055804373689135,-0.08004819343748568,-0.09508352801886226,-0.08743928616270602,-0.09720358624948032,-0.09633133391835827,-0.07187920715919598,-0.06024028519908464,-0.04543166185842526,-0.03791876994587827,-0.011988104706500049,0.005446098051466168,0.03312637511914296,0.05726054486064637,0.04686194818932464,0.05221354211015463,0.06974540243763866,0.0939626444947732,0.09145682106772858,0.10375747740711803,0.11475397429892809,0.13156867903675107,0.1445420839131105,0.1556937440511022,0.1662381131257615,0.17243482692469486,0.18083570040271638,0.19829001342316205,0.19890470784186645,0.21571428343297894,0.23056255170955514,0.2395458801418376,0.24742637750618401,0.24622863372485548,0.26983427199210136,0.2848824846909664,0.2906152289018993,0.2928714786532712,0.30937787451686344,0.330683409511783,0.3447426090552839,0.35981911662009636,0.36674865351050223,0.3814177056205705,0.3851948839124705,0.3844300216121769,0.35435599735722706,0.34596981499659085,0.33873904308152863,0.3329958004684534,0.3319732952157939,0.313090566830596,0.3155974233768188,0.30542121623009244,0.3109162112868355,0.28944686530899577,0.2982632741606382,0.29496200718614096,0.2983839872774223,0.2834698756742701,0.29545078495687577,0.3007585985879462,0.28482366496846123,0.27672090878133343,0.27051172943677937,0.2552038031340707,0.25271005273523617,0.25989257164776497,0.25002579937974007,0.2429030719211636,0.24125524632261913,0.22937204790655488,0.21490805310651012
-0.042600279502607835,-0.0396225583444367,-0.03735574226186515,-0.0436956212565955,-0.04569608583159803,-0.044279592103691694,-0.04220012670060485,-0.05096917088390182,-0.05723687719368882,-0.06190173739455433,-0.07555473423140313,-0.07828702569015752,-0.09625362907404464,-0.10130584053081312,-0.1000438161713356,-0.08957858854936146,-0.09077729173308649,-0.0960320770484599,-0.09621856610270532,-0.08685580354095276,-0.08896997478269517,-0.08931479239422918,-0.07815670872701447,-0.08546247417532307,-0.0782797262909305,-0.08724626645679337,-0.10513965950025117,-0.10732423982341795,-0.09565954387171456,-0.10284185436389504,-0.10141252121157524,-0.10484747275428369,-0.10164747775981818,-0.07826979937015298,-0.07355712438611976,-0.05894973559867637,-0.04608918160472088,-0.023560792691388534,-0.00835263870720784,0.020705846806892407,0.029268236742385143,0.04053031469701954,0.05593737527803137,0.0653989360927849,0.09037602585537076,0.09870759925176163,0.0965165004755587,0.11135306736936995,0.12524381080835328,0.14193409852743524,0.1530113101099493,0.16129829052953756,0.17893568158142598,0.18734867315627732,0.1907850312386838,0.199067171592369,0.2157802442589477,0.22942349327180533,0.24113490554199507,0.2452575547153083,0.2502525693198208,0.262500703678135,0.2791242601755538,0.29428255692689387,0.2964727538308418,0.31597798196609095,0.3391051361193926,0.3555351426622233,0.351316266719606,0.36338894446899256,0.378717882193393,0.3843205348148919,0.3921160203227449,0.37308949744646297,0.3599816146798067,0.34816708542455277,0.33221031713137783,0.3269144403433665,0.3118229396238796,0.30556544086655507,0.31222364532111024,0.3059131241375452,0.29568400926640626,0.30684331693321876,0.30402372307044234,0.30247120908520253,0.2857071158842312,0.2905869142833053,0.2904966124159449,0.28560038776923996,0.2832766269421154,0.2741648548874269,0.2562065108572604,0.2574981887574956,0.24657232225710685,0.24033432518875653,0.24504167521017656,0.2358354070423988,0.22129637630015592,0.21317044736877072
-0.048310497059137286,-0.04710912873120796,-0.0514723523583603,-0.05522395507388337,-0.04459840014930435,-0.053129822567444515,-0.04786281924733667,-0.05158582182102242,-0.054153226430667376,-0.06252746467211415,-0.08446564111261178,-0.08913117710704899,-0.09598330423374013,-0.10094268562622859,-0.09316129169085634,-0.09167155577026675,-0.10824412644052414,-0.10222593849876344,-0.10015234942822634,-0.08706060409826881,-0.0762296745859225,-0.08288113700860884,-0.07536311667998452,-0.08442637030737177,-0.08960738206996172,-0.10512672630656461,-0.1068999306715635,-0.1203611468732431,-0.11870670916790624,-0.12004017659125629,-0.12246104328345266,-0.11952042315062686,-0.10087040684130932,-0.09260727689867594,-0.07759958569712999,-0.06624399163366448,-0.04820876511413941,-0.02455982907674768,-0.013687098263529944,0.000011553121774657282,0.01770755714884846,0.043880602680508,0.062419302494088294,0.07203444142378783,0.0816994275696479,0.08528095360682285,0.10118234890824325,0.10716174309661669,0.13013372024941788,0.13971894597732254,0.15825233723748075,0.17212198251063757,0.18884465462811637,0.1986404107458412,0.20321470291563648,0.2024778616869129,0.20468080535473548,0.2175090220312394,0.23799377933000476,0.25230768304461515,0.2641524500638506,0.2741658958182686,0.2801505438720545,0.3027996396107475,0.30549995143363107,0.323935510299445,0.34912340463786196,0.35126481377757796,0.35601074488940376,0.3753303934913123,0.3850820121657364,0.38821684115886657,0.4058704479428899,0.3802954985669052,0.36605423800808495,0.3484258279031828,0.3513888697431177,0.324839153349404,0.3199454847075665,0.30906198940293295,0.3105853236516277,0.30800417314048956,0.3032097325999957,0.3085407995194757,0.3175754887319721,0.30124076967935626,0.2859832215091166,0.27980232832606505,0.28372237268127465,0.275757977430342,0.27467010416612014,0.2665488990994941,0.26879193878929897,0.24988916456551596,0.24253469652103798,0.24047292517039354,0.2388767944081851,0.22589671235486808,0.21530521430329863,0.21380735291322814
-0.04354949629254208,-0.04916846512555023,-0.052217732320398454,-0.05969318797718218,-0.06322920617539436,-0.05875603196814179,-0.06138446726506297,-0.058492704093296835,-0.06672536852732225,-0.07380498981812389,-0.08252322899633069,-0.08722191280388246,-0.0855706048474753,-0.08932332099221613,-0.09054849893937351,-0.10098052804366323,-0.1034046045191084,-0.10969763635676559,-0.10483610445984756,-0.09782389963907276,-0.08023148564246058,-0.07613092443140518,-0.08977199437025898,-0.09981390300581532,-0.112603976907226,-0.11815015614222016,-0.11806406440284004,-0.1196994672625875,-0.1177309326523142,-0.1241859771934585,-0.11701313869689914,-0.12076568611514046,-0.11171629415137249,-0.10399833428894509,-0.09045324631808375,-0.07179089578455627,-0.06391860918514158,-0.03847980579707266,-0.01885453829208065,-0.0033453566099932923,0.01225748598806373,0.037557003352300215,0.048574701349562155,0.05697936992554585,0.0631547354369486,0.07691444065380126,0.09222118078680833,0.10478922117370404,0.12233297855676847,0.13085042701909727,0.14272611668586818,0.1704968646964354,0.17817734015414008,0.1949187761230817,0.19422744911171846,0.20113534933408303,0.2151647643738626,0.22552337841264763,0.2326273356387504,0.2512248284536399,0.2632452348493233,0.28034326475347376,0.29468625895471956,0.3019082687564392,0.3091899247751217,0.3220550841173548,0.34775149516864934,0.35251024729722025,0.3649535181048441,0.3682842844609742,0.3835409760860127,0.4049786610414772,0.41146181703173046,0.39170392722956,0.3656785402666018,0.35556973912306983,0.34951893977838644,0.3318270055069732,0.32281849971413773,0.32588697142466044,0.3251825438783208,0.31829057439647185,0.31903190370031137,0.3221098954994328,0.3147004890332168,0.31512654072945057,0.3048529919958456,0.2901300874638971,0.2734690981168498,0.2690623961461094,0.270969334134085,0.269720157889698,0.26475453242955876,0.25443860559291687,0.24958038497380564,0.23682252368150342,0.21961994620668007,0.20768941820911044,0.21533946189320352,0.22181545585228568
-0.05733134794813376,-0.052989364478142904,-0.06543150193673508,-0.07178015879355576,-0.0711428572939933,-0.07293930545391956,-0.07685162246602553,-0.06392670620607964,-0.06093818702778424,-0.07449298043826406,-0.06984204739876881,-0.0791964772889864,-0.0875369934981956,-0.09853450441607958,-0.10873343024138844,-0.11084244972912811,-0.10962987800078058,-0.11772769660161152,-0.11603990667654057,-0.1062766352434235,-0.08163275645766786,-0.09130792145912174,-0.10063011756228232,-0.10285867123088796,-0.11433983940349833,-0.11428885005754622,-0.13176290443506505,-0.12954437780432193,-0.12832110710950878,-0.11394670822659048,-0.11698979546219979,-0.13207126063083716,-0.14543523929559504,-0.12087592127178719,-0.10399311929566221,-0.0879891230587569,-0.0720703028725294,-0.03877134500803542,-0.007462060926287008,0.0020322243135317813,0.015254473763826153,0.030066600866032633,0.053128050338273086,0.053096294387626135,0.03820251422121312,0.0601655085800595,0.07649572739387814,0.0906503508266599,0.1011453996618662,0.12475594813325058,0.1347584544665527,0.15979922465798754,0.17785529462687114,0.1834994016507837,0.18323478678026328,0.1947217745783559,0.20558507552495028,0.2302286729207826,0.23661896526425233,0.26318844920076373,0.2833545650648407,0.2904109456914043,0.29225283495489784,0.313666447887439,0.3162242612629178,0.3323808003985772,0.3466118521203803,0.36375741926369265,0.3704006240459874,0.3802269453332342,0.3802557759253781,0.3957643366892906,0.42581295666664937,0.3999140337459407,0.36833253014414735,0.3650585593093052,0.345887514857062,0.3397696290154035,0.3212137310274746,0.32719037949064506,0.32330225657825257,0.32229426201053357,0.32522944126487835,0.3257902166784991,0.3273202585912776,0.3168075945740481,0.3063454468438997,0.290332343280472,0.27078807069597705,0.26449494524523814,0.2736714223713391,0.26293629601673907,0.2533843417161464,0.2581993709723914,0.24661125957394675,0.22738895224589784,0.19807532579253767,0.2040726474736716,0.20278113209542625,0.21829095054634548
-0.051718525677011344,-0.05392963267005394,-0.07156268847067165,-0.07508562271440519,-0.06795784318390873,-0.07392678931009287,-0.0844554334757441,-0.07217244558140266,-0.06504714572113024,-0.0657892485923322,-0.06965089107121587,-0.08608383531828333,-0.08446379228938938,-0.09670130138858676,-0.10530848795960007,-0.10440855196420167,-0.11564203536204117,-0.11805356981936806,-0.11174724380763265,-0.10716033688156185,-0.11052948747600558,-0.10242784054927757,-0.12053136555428537,-0.11977735665860455,-0.12222387900322196,-0.12400954729906336,-0.126537339391638,-0.1356170917694306,-0.1216135574875726,-0.1134527611416165,-0.11497179558597145,-0.12403756851549677,-0.12173358103058733,-0.11986552039240173,-0.10283329583599436,-0.08301439810448347,-0.05736199050996926,-0.03611742325955079,-0.01065692597079679,0.006209302697964204,0.01209841116470014,0.02292558509514042,0.043183943661956214,0.03953031455287826,0.03602897264790565,0.05113727207647031,0.06680934347959333,0.08226955290400463,0.08924069731864202,0.10227117954553243,0.13032812325616486,0.15207300003964624,0.16977109227117623,0.17119455939130496,0.18467813285476672,0.19338782759151918,0.21124964685849362,0.22250491028232408,0.2527175568830014,0.2598119357830579,0.28118666740285314,0.29655787824560526,0.3105493404075232,0.31374410713045925,0.3326190603330771,0.3426594026821603,0.3581813997037586,0.3636802422266389,0.3854050322511443,0.3883131199024744,0.3985070125870314,0.4009793138566328,0.40710070994548636,0.4020879097503386,0.3842275160082746,0.3619801829157056,0.3606506018640331,0.3554069347266989,0.3365855854806825,0.3279665081830742,0.32792900591434454,0.3326478452945454,0.33898393846172187,0.33411817858174553,0.3215284478917552,0.3169080297659459,0.3043453029918425,0.2824014523733889,0.26695408941568816,0.26278971146474683,0.25246098407655315,0.25547424949415287,0.25273642645591105,0.25337430275149875,0.24195019384173214,0.21517698974676358,0.20235381278411685,0.20836412448856284,0.2154465796546246,0.2222885379731953
-0.04418821781858563,-0.06068924384889588,-0.07796013402250887,-0.06957262430926581,-0.06640753277754624,-0.08254264267552906,-0.08583042590425398,-0.07345996401089384,-0.07321423214926212,-0.07394898745762135,-0.07622643094985317,-0.07178708479535906,-0.07965765692089223,-0.08712362100599032,-0.08758298372941431,-0.10588814366693165,-0.12509477113005849,-0.1148126219497387,-0.11199098323782536,-0.11741806175999121,-0.12596536557412752,-0.12386022329878559,-0.13118313856146357,-0.1312160203660722,-0.14365506407418482,-0.1332215687706391,-0.13156493981822118,-0.12366037817421142,-0.12184062794772665,-0.12012465860567452,-0.11619371807274875,-0.1152873949882936,-0.12629611115759423,-0.10193989526548668,-0.08399586232929748,-0.07263839892815553,-0.055340625412440864,-0.03660707504723763,-0.014146472160254275,0.0001747814295322966,0.012982682933469176,0.020070541464330106,0.03425247764571495,0.0372190519946721,0.02692969962398661,0.05257911381748872,0.06323016322890317,0.0718234955183752,0.07755342597802392,0.0889098107267465,0.12124294139293595,0.14883090162983248,0.16853539671344953,0.16531088811216238,0.17844390151246145,0.19259572949739379,0.2117857519912361,0.23950465899016346,0.2656257187829987,0.27648086872203614,0.28382381682044056,0.29345857420644,0.3121973317626796,0.32730481302059133,0.3446304292603269,0.35274379645452797,0.36052875274453694,0.36784683340559243,0.39071955202734604,0.3971628251602232,0.39786501159313586,0.41868882355065096,0.42820122309029124,0.40986342778730456,0.39036376832253683,0.38345601677133234,0.37431473527365383,0.366921734020424,0.3499253983900434,0.3446290377337253,0.33158474496637336,0.3385255542747712,0.3377088756181569,0.3362778659768265,0.3368559938164275,0.31623131367719853,0.2919059509199879,0.2729032822710368,0.2646000393758693,0.25900732258592907,0.24837095343219745,0.2448664073369048,0.25299649786135997,0.23904725409293032,0.2310463143445724,0.21476564247740723,0.20924127391711056,0.20818175031702596,0.21284655343511497,0.21820210282631766
-0.05856576505457865,-0.06402251065227338,-0.08120185604072919,-0.08773070472093693,-0.075775752166452,-0.08593998173909757,-0.08672192228704147,-0.07672499635871198,-0.07753144320110099,-0.06254773369323932,-0.06016773309988463,-0.06994662550355245,-0.07755541243070393,-0.0744735879333904,-0.09153326711321869,-0.10828662087828006,-0.12484395483611586,-0.1264208961662181,-0.12072103284939277,-0.13321525255839356,-0.1233111314473172,-0.12909859017098554,-0.1315988184119677,-0.14657152484561345,-0.13896116643015724,-0.13628366706655867,-0.1376720163349261,-0.1309255492513531,-0.12821786401717955,-0.1333836336217257,-0.12738316653250312,-0.1197841762354332,-0.12097724891297358,-0.10835024027298518,-0.0938834032692773,-0.07447992874462661,-0.05838037196389092,-0.03473899419391351,-0.01044801960527498,0.0031917993606301208,0.007623441780963417,0.021041899045747974,0.020811720908737535,0.017801396392570376,0.024248996693801983,0.04464295217218888,0.06061323387649857,0.05919809548222065,0.06378504107032029,0.08385642189547156,0.11620501121669655,0.1375878625272437,0.1623958925713821,0.16355107578938685,0.18109429916423195,0.20218277164637136,0.22913701596727876,0.2471453882864015,0.260646694749016,0.2694446543311515,0.28825725751864434,0.29964402829335524,0.324095160621865,0.3351764951697089,0.3502170707007356,0.35987388974992535,0.36405300143541874,0.3857106915300298,0.38967375926325315,0.4029415952247847,0.41955680995479594,0.4230059078315408,0.435448981029891,0.42030192891033485,0.3998903613527433,0.39065394739024306,0.3784711920336155,0.3690884037362528,0.3612726145418146,0.3571107513030116,0.354580896940212,0.34327762426782044,0.3473797764628829,0.3398343045664128,0.33453988300754656,0.31798324104673076,0.3078974022285925,0.2804066257650162,0.26826004134386167,0.25246235817479906,0.2481793110030639,0.25089152407531606,0.251816523754101,0.23675449466739157,0.23380611894851733,0.22813952763621345,0.21843113887915533,0.22193304125679325,0.22256866994003938,0.218635280559568
-0.05959578333480459,-0.07746731578417367,-0.09348760643404659,-0.08672675446386718,-0.09147654790750558,-0.081279481474263,-0.07940950921294207,-0.07063530991161873,-0.06771306121956526,-0.06292676106289928,-0.06223924238946591,-0.06120103549887534,-0.057340019357163215,-0.08204569251645494,-0.09825939082234697,-0.1136859039104251,-0.1308541354818725,-0.13058331764990458,-0.13456786481772887,-0.13191063519131263,-0.1332591556528533,-0.14413618285141572,-0.14692355889631498,-0.15646718692438374,-0.15293436191760812,-0.13809802887789913,-0.13369891556362343,-0.1266846899193129,-0.12985422570638608,-0.13571606542851716,-0.13689091732021405,-0.1253688757703182,-0.12351139517761252,-0.10982891586782653,-0.0875374237751128,-0.07704139244568031,-0.05582094802373949,-0.040363642453644905,-0.015400398883803294,-0.005369486131059215,0.009334692971010066,0.011210349883789102,0.01551351414495956,0.00933969025691531,0.017680192969153574,0.04693739089288594,0.06098636146124587,0.057212771077521526,0.05806357356448162,0.0829015570622724,0.09783461420274653,0.1288886166954205,0.15828878060231255,0.17261034952342794,0.17861323062157494,0.20392021269847338,0.23262339889538505,0.24694347092163116,0.252886652147924,0.2788119665540425,0.2916231023068976,0.3054521641395474,0.3247263319260838,0.3520140356414675,0.36355578559033014,0.367079618567211,0.37958670388343546,0.40308231455842725,0.40948042240202215,0.41990680585329543,0.4300919005936651,0.4320696831844029,0.4477955412287832,0.4245367432763158,0.41476989136275916,0.40406934032225217,0.38971610226822023,0.3827867265360818,0.36276574294482067,0.3731140652309087,0.373359321817743,0.36424112960843913,0.35482091077814154,0.3510600256371876,0.34296895006995703,0.3248557143007196,0.32112643982574396,0.2941781927860003,0.2630025535946277,0.25237960020443073,0.24752028627062989,0.2490840381114464,0.23950993494997158,0.235425314099853,0.2260027983222448,0.22307736093207683,0.22892732929026813,0.23142506131937754,0.22218817128490026,0.22857264621684512
-0.06254902846809059,-0.07232176019991161,-0.08638170905311543,-0.0859893901323758,-0.09109753184769999,-0.08310179808558725,-0.07386983734931686,-0.07563978470244129,-0.07279799810584096,-0.07444096687720489,-0.0713662582489294,-0.06558117319327048,-0.07858928977849496,-0.09843886105892363,-0.09875159813650514,-0.11254865090372917,-0.12381873194237715,-0.13049721073883402,-0.12645565286862018,-0.13728262629954088,-0.1348971426564836,-0.14675325271484782,-0.14608054586185734,-0.15306660216807896,-0.1574118442925204,-0.14058266241734022,-0.13154863004000503,-0.13788552931577622,-0.13476311067033375,-0.13689455403894532,-0.14565624810344824,-0.14560983999443478,-0.12754534492027092,-0.11067028003208802,-0.09762498393300875,-0.08838823889032793,-0.06242637905736104,-0.04031348595752532,-0.017090026683444247,-0.01264734145638815,-0.002639981461721225,0.014261306138846292,0.007849190840323657,0.010381325633157143,0.025900600363460473,0.03883006917986196,0.04728078974519183,0.05299345067943298,0.06257116205382103,0.08039585268291975,0.10162759875149512,0.1329518796216578,0.15380269908418054,0.1722632953802568,0.1903443964475295,0.2124459034526422,0.23929236693710465,0.2508307982828522,0.26217700829461,0.2863734564099053,0.3125517606801668,0.32930746230922575,0.342111735258765,0.3675955270691932,0.3817333578339957,0.3864272934386787,0.39759953551485516,0.40778021432686207,0.4236309605374441,0.43365357508287966,0.43981800284460654,0.44756019771046335,0.45003117124723485,0.43689412689516044,0.4303108401306417,0.4140294601235772,0.3997283211558499,0.3933664936978662,0.3878593512607529,0.3794122190346073,0.3790366031376125,0.3846107789259188,0.36930878257455524,0.35942010582744294,0.3407482910742967,0.33533835565323633,0.3205188815828537,0.30171351731792895,0.28628811314522296,0.2665375615966465,0.25000670896419075,0.24536580236371164,0.2443637235599492,0.2394793867708616,0.23410050610459784,0.21870207286480053,0.22014877680083478,0.228568114806737,0.22477048427003277,0.23271255875624539
-0.07207921017513007,-0.08443727868122375,-0.0887667931805189,-0.09094628843453681,-0.09778820071948957,-0.08412922357203854,-0.08237037224345163,-0.07491111350789152,-0.07103065220837135,-0.072064003239823,-0.07518360196534264,-0.08504443884931102,-0.09234247813357502,-0.0999703170397604,-0.11488453107499252,-0.12001043509995009,-0.1171976609524363,-0.12250454679149443,-0.11561862631411152,-0.13597944617182883,-0.14643766125082522,-0.1429892441633075,-0.14772265822611982,-0.1451215481661389,-0.156377949455318,-0.14267611251891552,-0.14061007667470968,-0.14734406467462946,-0.14164359866054466,-0.14831199652483992,-0.16173825159031635,-0.14784956707914162,-0.1341918105267107,-0.12914531487295933,-0.1195550672636762,-0.088733507638948,-0.07670078181585771,-0.04711998209730929,-0.022505785287027555,-0.014218891348839616,0.005167390201450025,-0.0009533076959986992,0.0053715254115309224,0.005117137346813345,0.009817848512833894,0.030400971407772523,0.05331249301145102,0.06249361407450998,0.06364869931750103,0.09236251039528381,0.10916509210670686,0.13529791755909304,0.171809043720648,0.18161270569072008,0.20524267522461184,0.21891186826201148,0.23718856550722453,0.2557979199266476,0.2751426535613374,0.2990335493303874,0.32651602177463146,0.33946573820809767,0.35694992536885445,0.375498978445293,0.3944121045417919,0.4158418741915802,0.41808314846021716,0.4274213628982362,0.4407018649605455,0.4438159730311276,0.44667200029764603,0.4545248787954656,0.443188418135427,0.4460046909530326,0.42978962099687035,0.41862091704350635,0.4260738673408419,0.40557516432583085,0.40002139892374344,0.3911207093937516,0.3956457186598895,0.4008912745808994,0.3882671470426808,0.3569313609725264,0.3429125359068686,0.34325911097839074,0.3284638183494388,0.3036651276961944,0.2860520290696456,0.2708258465955908,0.26664659521994516,0.2655861876934674,0.25860489673072085,0.24483780876002867,0.22212615021407245,0.2177694773272266,0.20925130860587238,0.2164937444311366,0.23648656471081644,0.23134850853290626
-0.08957615049048794,-0.09980909977075496,-0.09765419170411618,-0.08431221896144477,-0.09431781181833593,-0.0913620960090607,-0.0726036707204756,-0.06995472839614848,-0.07213434719389868,-0.0763685906969161,-0.07901075379478058,-0.08798721502566619,-0.10216840807675184,-0.11282403512318707,-0.11772691398543757,-0.1175088730064552,-0.11097150079343758,-0.11340938723161373,-0.11920356401684633,-0.12308320518173134,-0.13593111414842451,-0.13668986323045873,-0.143670009374044,-0.14054047914427958,-0.14730812699455556,-0.13857968348888833,-0.14812864955594082,-0.14892508153958303,-0.15250137907279213,-0.16136370384760856,-0.1605329308307355,-0.15345704540549704,-0.1505993122594439,-0.1450434744947846,-0.12784064080501273,-0.09987560207784518,-0.07054213646964812,-0.0469673289261353,-0.02597945523843919,-0.02457466268312954,-0.007778818654669291,-0.0011092248257554005,0.008659610065491881,0.0019411556790100912,0.007601888515573817,0.028886231469106672,0.05327107198640169,0.06349257848231282,0.07926216120167048,0.10123437338136435,0.12286460281368733,0.15711816484137558,0.173633681484226,0.18866520619894508,0.20856459203460814,0.22711127313427903,0.2486102847021247,0.26754548887639384,0.28507958810463974,0.30171189997557696,0.32657978742191035,0.34664113466979196,0.36770432906268014,0.40535026931536955,0.43713309472179973,0.43853061993536224,0.4359864087468814,0.4462524538492409,0.458848044642949,0.4583972279412457,0.4615565461212228,0.4581681961034437,0.44795237120105313,0.44726774858796137,0.4324023143903173,0.42745165869563806,0.42903198292886213,0.4144711974346959,0.40911765084923796,0.4088330457859952,0.4136684552961331,0.40738327272251,0.3812827434261622,0.3616890640962614,0.3444386621985245,0.3429960309134309,0.3340824992539567,0.3287599362778679,0.30801913986456414,0.2895711403061988,0.27899224061999256,0.278074904021746,0.2691332327796869,0.24495011288880414,0.23306883198774503,0.20769486522349886,0.20148003000362683,0.21641630161934827,0.22739451800037866,0.23743728120640065
-0.12618058537384258,-0.10152938007672878,-0.09966135158134484,-0.07693212373354609,-0.0819532739253466,-0.08110086358187717,-0.07297100214881463,-0.05948860516579614,-0.0600116332618294,-0.06761511805356633,-0.08691513300575496,-0.09891202124290549,-0.10487308164681747,-0.108652368318863,-0.11144862922084328,-0.11686420522144744,-0.10518843095073464,-0.10750416827057722,-0.11001247430450312,-0.12908491394417015,-0.1466000832099982,-0.13205601431062783,-0.1226420157852228,-0.13270263964296758,-0.1291093595549711,-0.13920162189897123,-0.1493127444355442,-0.1576341735565531,-0.1752804561958461,-0.16209306844673876,-0.15819364232886673,-0.16413879084106173,-0.1825349919460868,-0.14666815134794464,-0.12169698702955753,-0.09465403744355141,-0.06288253229725235,-0.05289553576738248,-0.03670976336941567,-0.027600555210198864,-0.021128690528997053,0.0027953527336543865,0.009472010890601144,-0.001133838424298865,0.003455449436344623,0.027076679744319886,0.05607857878206472,0.059853487951913434,0.0757534647375541,0.10708689903254613,0.13578589200805402,0.15134447821277913,0.18144884370083073,0.1917894837221569,0.2130612787436252,0.22866275715456388,0.25475094534741116,0.2750911828255356,0.2861095961435619,0.31561446331093823,0.33168644082962156,0.3638493593109034,0.3895333935682008,0.4322437621079774,0.4902736141529702,0.4665429906268499,0.4540181857438876,0.455793119574033,0.4669273515169257,0.45743228518539775,0.46412810246149805,0.4555678056507888,0.45675666268620496,0.44350068366465795,0.4350237169240891,0.42939618509809774,0.4303022028276415,0.41542159918675575,0.4154074925287043,0.4226091963812165,0.4450918872955314,0.4084109202466663,0.38634496379166056,0.3717673143966765,0.3530660501208894,0.3491268181459249,0.35023224403319925,0.3300771686343115,0.3193086974513889,0.30495178176764,0.2918691417026788,0.28504829133643766,0.287464464304979,0.24895459745089388,0.231573430965619,0.20817611935323188,0.1902640551964096,0.21124604430127494,0.21784275326230917,0.23691236302295549
-0.09355899625125189,-0.09381187798009202,-0.08796473796188001,-0.07245398267473628,-0.0804408755277853,-0.07293298391616046,-0.07780614699158918,-0.0658566188965221,-0.06948935469165383,-0.07310374608507553,-0.09069217088336012,-0.10150615788133752,-0.09791210831937472,-0.10735351523039821,-0.11092767958639557,-0.11066753401897705,-0.09676579056985787,-0.09984776126996811,-0.11945210101986252,-0.12778580595958444,-0.13730288673849997,-0.13019861527107898,-0.11851829107753625,-0.12880182980698232,-0.13126691461259843,-0.13012766372163587,-0.13308289093880984,-0.15066496382028016,-0.15494558705760078,-0.15745573342576857,-0.1491679889969219,-0.16048026981246627,-0.15819987654587755,-0.1445989633389689,-0.12552836119620883,-0.09515968558031987,-0.06757963464950767,-0.04489069514115219,-0.042400249002979264,-0.026284655732350233,-0.019319925665460043,-0.0045291699154552025,0.008433049352311064,0.004894088767642257,0.008490831328267869,0.03794354350929083,0.0497062761446698,0.06518925295948859,0.0930097532525946,0.11533336475240477,0.1396543827414511,0.15262301839840609,0.1775561383690534,0.20357771022252105,0.22479318823996697,0.24455652835301808,0.26500237798875637,0.28054707953956054,0.2953120693270204,0.32095060034171463,0.3508945764201103,0.3825886773455062,0.41543499225297464,0.43813514316195273,0.4643521468835353,0.46600431621636607,0.46610358425624737,0.4631495562405141,0.4616666941349197,0.4635731834428279,0.45185702300292635,0.4517695717579016,0.4458718454217756,0.4323957283312427,0.4205558027938825,0.42040434221276207,0.4299694845251598,0.4281232529353797,0.4248972108975143,0.4268711315239307,0.4219673443391807,0.4077958751959407,0.39201057086010044,0.37922957996753787,0.3634331329246467,0.3643531661768061,0.3440383533970497,0.3395935177019515,0.32585261078808986,0.3156570180567723,0.29291558161108705,0.2843720604186215,0.28212780324840303,0.25674551741308743,0.24989309282353914,0.22512876823795294,0.21891856372477592,0.2160818598427738,0.21945872515704695,0.22989621616284314
-0.06485218225473637,-0.0695420275980858,-0.06667216124163304,-0.07159161201371285,-0.06732651009936333,-0.06925349331442793,-0.07747854853108666,-0.06874639836331078,-0.07443481193045258,-0.09259121668745557,-0.10162227539059235,-0.09518890687468617,-0.10566210521338644,-0.09950198584054633,-0.10273874481477165,-0.096745322842541,-0.10236555330000222,-0.10258344066167294,-0.10926943689260403,-0.12324913073698111,-0.12118031325617737,-0.11695373152537546,-0.1193859318481717,-0.11441410367078245,-0.12022116389550552,-0.12288065929938145,-0.12811135283175124,-0.1303321943250905,-0.13462027650078165,-0.14861466189603312,-0.15073737154654437,-0.15345081301751035,-0.15217101226796656,-0.1330304240086734,-0.12266809216419707,-0.09970690626046626,-0.06173392303809152,-0.05171133383302888,-0.046546851037878416,-0.027701367291822536,-0.01625592951035895,0.0038389733721644875,0.003206399938501271,0.015166127213491764,0.015780618078335716,0.03658592493503254,0.04534317409521409,0.07094665383919764,0.09469763077370422,0.11530027325306492,0.14502529694797375,0.15977217866418603,0.17853550673614121,0.20372347973753532,0.2211085181510766,0.24115561235370522,0.26837180730104226,0.2949879207719158,0.3128867508244579,0.33291689209492825,0.37182110793174883,0.3947817731111775,0.4231585650542017,0.44230568088708205,0.4496859726932449,0.4521494290414473,0.46634997308097803,0.4551354578041561,0.46880976904287286,0.4540372838764583,0.44977095211124263,0.44654702941866836,0.4365025387663858,0.43496479540659516,0.4244428704512051,0.42446287271889777,0.4177851224538153,0.4236727254198159,0.4278958088074174,0.4164144968484545,0.4092948828312274,0.40217222728941554,0.3984948612288902,0.3885288902186197,0.3871382826080189,0.36536564102778746,0.3442815526749822,0.3381519321192881,0.3295121328701306,0.3127578169973249,0.3091866647574765,0.2967274278662781,0.2797654856075825,0.2665469622356154,0.257262036416103,0.24617101452726828,0.23668935488693202,0.2269297842209784,0.23806046228896777,0.24165973992902284
-0.05558712702513439,-0.058401208384478154,-0.05697632334765858,-0.06553826144769494,-0.06022868423924815,-0.07113256217873767,-0.06935015561740374,-0.07503181212595698,-0.09255336677188056,-0.10042746781949004,-0.10243654898835387,-0.09575448937762199,-0.08985624821999404,-0.10153534079757832,-0.10246032589618549,-0.09951044052331673,-0.09982725248611972,-0.1113688786336004,-0.1079371861706858,-0.11202655270579119,-0.11587462480381927,-0.1189628594714766,-0.11886867998162355,-0.11778778129015814,-0.1232428687993295,-0.12025678420779812,-0.12448782182645446,-0.12564074233227057,-0.12825281504968156,-0.13511173020822503,-0.1396063041328331,-0.13806746072111253,-0.13362994158534378,-0.12092576605951577,-0.11046458687435164,-0.09042004353008246,-0.058931774301679105,-0.0568258414459533,-0.042642503444744864,-0.024979045351482876,-0.010757715194377864,0.00996288682263111,0.012363330045622642,0.025170376267883956,0.027350956393640578,0.04300815062586522,0.06611397275953156,0.0807667036622653,0.10463136869890007,0.1266535911605031,0.14798451923246117,0.16880171205139677,0.19092690550404978,0.20872764377921993,0.23249344078364875,0.248892367934906,0.2877796133526068,0.3076794765903465,0.33052237215803965,0.3436794541980896,0.36628825587439856,0.3987480360446955,0.4214029208225109,0.42743075165095185,0.44315536506962827,0.45576633711977754,0.4569730408872126,0.4497123767906666,0.4557970288735407,0.4471900133443841,0.4500813463020047,0.4339212645392849,0.42444598188536975,0.4286145964770102,0.4329759765427569,0.4332372120345235,0.43643249996862205,0.42770424450487116,0.41831174112947506,0.4195495166524554,0.3994840664930919,0.3983754644938192,0.40326059987201557,0.40075387359871323,0.3947491755610985,0.3764341993772115,0.3579960520749746,0.34332845968102005,0.34175709699734513,0.32504559007480854,0.3075283543932698,0.30232331557139186,0.29457013299546675,0.2842478479739558,0.2617095042201274,0.2528982761835613,0.24808778161728734,0.24246497985708002,0.23409331898217667,0.23845345569193935
-0.02814879181313632,-0.048437173053294744,-0.06081190085233299,-0.06534708689303215,-0.06527094857557691,-0.06758483071015746,-0.0719596741576425,-0.08997492291175549,-0.09772687524710363,-0.09214522865327296,-0.10270652691826143,-0.10066410609512436,-0.08709228549956766,-0.10083288049004795,-0.10995482079675745,-0.10443890711757384,-0.11241406433260105,-0.11856381607018719,-0.1068732106985539,-0.11504587173893543,-0.11406402716884859,-0.11970350019958438,-0.1223273803538085,-0.10609756528967657,-0.11340833944505391,-0.12183871046451782,-0.12665688716528384,-0.13205183631946435,-0.13763963273605967,-0.13191421350797888,-0.12732413003083515,-0.12753816684631902,-0.1323534903594338,-0.11130950005758627,-0.09470264840568032,-0.07411216712289852,-0.054416770896446955,-0.0474631404162799,-0.03825957143934447,-0.010812189681032142,0.006656502658233511,0.015402761623863894,0.023902089789923458,0.03451006411852159,0.03378316276805539,0.04982247232483703,0.06845521719841847,0.09844545185739347,0.12007161293503357,0.1468392618195014,0.16370655214374777,0.17361182077158688,0.18434107750348552,0.21115640410929357,0.2332909644469458,0.2610689074533191,0.3027550724281305,0.31924287596678874,0.33025373290897203,0.3515659074964851,0.3711333686611974,0.39422268688093737,0.4080963967257884,0.4175245782333272,0.4462245223522424,0.4463700461988005,0.4410660390541485,0.4357865601935933,0.4502180265669966,0.4354490603052154,0.4401283756261717,0.4226164791422915,0.40688133960706535,0.41755409145402955,0.42788264879299165,0.43937725165771546,0.4403790235288979,0.4259456827754847,0.4252311983871093,0.4213552485577906,0.3997466216544761,0.39982164364931205,0.4138071685283394,0.3994506502998388,0.39586760878744964,0.38297872134160565,0.36739165122197714,0.34758283536788637,0.3478326799881876,0.3386025467986641,0.3210542890312145,0.3063763642660812,0.2962238485876317,0.2847606487065129,0.2738473104540955,0.2661306064007045,0.24595425845927582,0.24592214264244208,0.23034140941393677,0.240534507091624
-0.028856009810128317,-0.04476500835353697,-0.06466504750612723,-0.07294712304208269,-0.0699217814720566,-0.08256023256068995,-0.09078100548466443,-0.08671899250692988,-0.10295446595728645,-0.09845223972913572,-0.10215928204609831,-0.09634895836493426,-0.09969353187860133,-0.10243902253975161,-0.11081929362963945,-0.11581727767192443,-0.10918511898065071,-0.11250177522951552,-0.09698090084560669,-0.10245074232625127,-0.10664435657384898,-0.10980759381525018,-0.10806962329589802,-0.100633645109815,-0.105656416587221,-0.10192722576589694,-0.10106750911788488,-0.11735472033020328,-0.12411105209048263,-0.1206544349679529,-0.11309031169205604,-0.11429861984668879,-0.11704617083103674,-0.10633863634458382,-0.08311793827617231,-0.06911041363294244,-0.047379463570255784,-0.04426780423449926,-0.03347299116580453,-0.01709726171303869,-0.0019792810796499466,0.013295330495481473,0.0189315534408421,0.027180576360049554,0.04115046949475372,0.058925726154491695,0.08753697133106575,0.10996629011378332,0.13776885325667748,0.15491139038574323,0.17017217278389735,0.17930470917552427,0.19261123544307235,0.21449517434131352,0.2417386264273156,0.26715603523465004,0.2920503131471116,0.3177180214794025,0.33398230828089287,0.34848379502929444,0.3661692233919181,0.38166133070923886,0.39556630415268684,0.4086469911528492,0.41535821830796366,0.42409008390574404,0.432790015317797,0.4258738667843327,0.42146688508182095,0.4264965895336408,0.42443357681133154,0.4134826998131035,0.41056007470896894,0.41310381105971156,0.4097897851255004,0.4255599669214949,0.4243391804728243,0.42126203060774825,0.4221443735370768,0.4122065951942778,0.40094468371192676,0.4073749172214599,0.41049269487353135,0.3980092495923902,0.3902629745588256,0.3880302579460195,0.3746026969290543,0.36197467947033507,0.34712931764469884,0.34065302606438086,0.31562964171349533,0.3054704259336026,0.29488149862738944,0.2799892743847069,0.2741332153307148,0.27109631445475224,0.2544432173394231,0.2521039534327118,0.24477110729124962,0.24836489250795998
-0.04065837909931436,-0.04556968691546521,-0.064622042034636,-0.06458003109867826,-0.07442253784056206,-0.08300628980215764,-0.09215138332920939,-0.10750646217476732,-0.10335560817355623,-0.10609053522366721,-0.10623139271139687,-0.11243956765710952,-0.11056722304957486,-0.1114831574942278,-0.10872251396679421,-0.10642705212574484,-0.11476934798368374,-0.10163154129435158,-0.09083792781482239,-0.09554743171980903,-0.08726341745833005,-0.09515433765389984,-0.09133306088620466,-0.08999820012627327,-0.10185623873588862,-0.08568034572051292,-0.08474087901581782,-0.09084605856755343,-0.10230075631003498,-0.09747453346960971,-0.09928258994988348,-0.09826935053170958,-0.09762110814509291,-0.08832919257304918,-0.07503391711376638,-0.06154453445060222,-0.04414773508396899,-0.040601834362941944,-0.02446952822590332,-0.013838934924893999,-0.0028075480382683832,-0.004031439754826964,0.0015542399340823833,0.014458538256364478,0.03639765393290829,0.05944455318946576,0.08772818299207918,0.12025167229522449,0.1454578286717353,0.1538750598680962,0.1769860087385169,0.19302864880936807,0.20112017946840208,0.22173282537674044,0.24978031782919685,0.27221991142525115,0.29188363361958963,0.3204686653673567,0.33575147074901335,0.34859062175056515,0.35678883673166656,0.3736462529716312,0.3753387255563378,0.39306796995036913,0.40444997893755996,0.41021236568590064,0.4115180506920413,0.41628717207955157,0.4035853747071068,0.3964093059076386,0.3958414927749898,0.39316750795441785,0.38871910170747165,0.3998634409399824,0.39932343015811644,0.4127196711253156,0.4036654904405197,0.4135433607010046,0.42187998245919567,0.4135210269649699,0.41440911525528756,0.4083354967984293,0.40919317307874614,0.40097131116757484,0.4013104654274822,0.3795076108470832,0.36677463926281223,0.3616887062427522,0.3478326148868021,0.34051148940593157,0.31563423075535735,0.29938445714269274,0.2916895682319118,0.2890692479371217,0.2893237636172123,0.2851476466731604,0.2625228416680164,0.25697907608240605,0.2542036760437423,0.26305929754051227
-0.032794191026359054,-0.043334019274531274,-0.06926330582255576,-0.07460260373586819,-0.08749808032759794,-0.09153126869049874,-0.1086116265866345,-0.11699046199074811,-0.11921853384540174,-0.12495994564454944,-0.11575102033048426,-0.12161042067386676,-0.11469744700203452,-0.10566026526419971,-0.1068662188518558,-0.11150203947529887,-0.10340561367365116,-0.09741337101903344,-0.08895344551063075,-0.072965998674735,-0.07760587233010247,-0.08076615619175703,-0.08009303657292058,-0.07405902659270729,-0.07457030723060369,-0.07683601741575548,-0.07455798496730999,-0.06847864066936371,-0.07936024818222956,-0.08753900458637338,-0.09228260096235175,-0.08482780003963201,-0.08434769682966854,-0.08434454617897498,-0.07143406505849405,-0.0568258111455882,-0.049470629142501485,-0.030228570877023762,-0.03239263404161046,-0.01879923320255561,-0.02428459511538734,-0.010380221966913173,0.0010286712161611186,0.01469950203809733,0.0340554858803062,0.06254447364039126,0.08065405156593206,0.11121386661399624,0.13919195276940172,0.16470705852136944,0.17686241322060509,0.19768680414445391,0.21670734064276864,0.24575307058125237,0.2664482841481784,0.2862959535277755,0.30295984820048155,0.31347953323409533,0.328940469953406,0.3436206074413808,0.3461095090609856,0.36094809825771046,0.3746502599486299,0.3891787997014414,0.3847819597164823,0.3840347691863475,0.39093975162467803,0.40049060858729646,0.3983766699746221,0.3889897498669258,0.38551965732261995,0.39012845722623796,0.3876154144772954,0.39117362746893386,0.3971045417014699,0.3987071489052507,0.39352066636745253,0.39649426069706595,0.40245769841121326,0.404684473908138,0.401517553521587,0.40603506603491524,0.40005310335494904,0.4007030159674362,0.39849165742213,0.37825993470638813,0.36423038314478823,0.3556762194580479,0.3462772475992258,0.34578512137058875,0.3226404978223072,0.3152655173919351,0.3148358949156274,0.3087722715255799,0.29901500830484046,0.29033175781403514,0.27515506834273035,0.2678707629187891,0.2616782970384679,0.26789800902029787
-0.0192967641964457,-0.041606833258574075,-0.06561061326071825,-0.08579063334911315,-0.0940308002709811,-0.11472492106073007,-0.13369624326823348,-0.13925578638396405,-0.1558775334083678,-0.13790374916161172,-0.1267798217062449,-0.12379100028603734,-0.12231359026887316,-0.11973543734225137,-0.11024093271765958,-0.10744728292361144,-0.10644792025082873,-0.09424590929190509,-0.07595562328643757,-0.06084707441053579,-0.05752234181661068,-0.0601007685673736,-0.06384478016178134,-0.06213551934579765,-0.06350137141824733,-0.0655989946391772,-0.05928909337349646,-0.06447766476728047,-0.05661882121933343,-0.06137886060762953,-0.076105028350578,-0.0770982072047342,-0.09079046877337486,-0.0753773593232465,-0.06276799928162283,-0.05188150906552795,-0.047145489505076806,-0.027591471797789036,-0.02729385476979465,-0.026721585413341888,-0.04083413073252479,-0.017802399274280838,-0.00524721312288157,0.0203153961355283,0.030617194727990495,0.052201308933765476,0.0837382856400925,0.10748412066453479,0.14693926491627912,0.1625082817358048,0.19412936601763017,0.21800749396840452,0.23798117148989428,0.24715162131359866,0.2702217175481975,0.2964171307013101,0.32186677466986446,0.3166747210709718,0.3226628623504346,0.3277487136443909,0.33810078845186,0.3633989411217087,0.3702547373815377,0.38014719837826133,0.3758087027220991,0.3696396533634802,0.3709354568628294,0.38513580542299414,0.3910189609889911,0.38580673235000645,0.3774793962259977,0.3792725746640787,0.38245840980527196,0.39381037296898846,0.3940007694452757,0.39854980504279214,0.39272834156190295,0.3907825154809736,0.3966577679000618,0.40264706315338156,0.40183720902263537,0.39797703269198326,0.385712434069209,0.38719075797477637,0.3987789035007678,0.3875957548396616,0.3687940319136467,0.3531776412332503,0.3484679502075332,0.35568924788985057,0.3403968229629838,0.33160051444780003,0.3205440806521236,0.3210608995996622,0.30288502415673413,0.28844314569157703,0.28055369347196946,0.2797549034617467,0.27507150437932465,0.2735822061814266
-0.018632242660745507,-0.04334079417349659,-0.06147403995714213,-0.08473045010881247,-0.1003565739876679,-0.11814636288991105,-0.1399138460381717,-0.14578756902309084,-0.14530695946647043,-0.13579635741518892,-0.12026622669069822,-0.12162381643460277,-0.11768034294201286,-0.11468647152205934,-0.11048045971128723,-0.10657461267631255,-0.10624766986078449,-0.09490039244874403,-0.0733475488642498,-0.06795658054165679,-0.06339298270518612,-0.06147875091109114,-0.06366932110939236,-0.057803307716118184,-0.06253537419948169,-0.05958835607722597,-0.06510915277109224,-0.06272381859501769,-0.050857742490971976,-0.055261663384014226,-0.062180759498024776,-0.07593789584947337,-0.08594384824863822,-0.08021768793533676,-0.06923945930752984,-0.0528633435205971,-0.049678131443945076,-0.03468696712889442,-0.035340733866933746,-0.03945221478096767,-0.03500073040482114,-0.019845820610118727,0.00008246642105200382,0.025676386814129572,0.03761338903457583,0.06294058508067592,0.08697489154955165,0.11856014110774012,0.15261742254868624,0.1753791076200216,0.1893006353030037,0.21358511462153038,0.24244167244215908,0.2591243510279679,0.28377392796950685,0.30105847830919263,0.31001489519504216,0.3088345791251484,0.3217559557802774,0.3313229550858847,0.3426310071594434,0.35312305430476854,0.3589507124386355,0.365026671787944,0.3601934669874633,0.3600279710971468,0.36653581143989045,0.3825170269184059,0.3863429030764834,0.38521059616578635,0.3835400744792621,0.3930415157827125,0.38596952872953194,0.38224227993501814,0.37443680537286683,0.37771756316443966,0.37484160120078125,0.3808169348662297,0.3823896683009073,0.3841894722164804,0.3940034235454705,0.3889837873030457,0.38742923530043166,0.38794934937629977,0.3838063845424633,0.37473130293565393,0.36035570092392766,0.36387439413153866,0.36018498649724434,0.3592976219451606,0.3538981281445223,0.33937737733563456,0.32103378321732134,0.322547943694694,0.3017480273558312,0.2883672230562939,0.29049710869034473,0.2852557316204504,0.2803194113502372,0.26516497994734595
-0.014356020197029262,-0.027785235551623298,-0.053579691400790955,-0.08190967324290901,-0.09908814299731135,-0.12079320240026206,-0.1321541606424048,-0.13730156017285464,-0.1398733678906605,-0.12623826884374836,-0.1237405593586909,-0.11018527517179783,-0.11114569798989367,-0.11585818268089082,-0.10963576104248227,-0.1067304283750155,-0.10397856605619152,-0.08777196848989909,-0.08497384358373035,-0.07331283907118298,-0.0659704645998001,-0.06360760985187344,-0.05905035366409574,-0.057167505002979624,-0.06770948017157823,-0.05624501166795295,-0.06281198542781599,-0.06396333365108589,-0.054201587399732534,-0.0596762079998173,-0.06253352631238634,-0.062265382315592005,-0.07618434448687154,-0.06485930278275148,-0.062108979067530476,-0.046825571870652144,-0.03511976175713148,-0.037313918623781,-0.03840991780517829,-0.022592026616746242,-0.02907452154661879,-0.01219387435658345,0.01343512779853471,0.02407338187721477,0.0552531233314765,0.07067627509108601,0.10747542919612672,0.1274167018518167,0.15882475007012678,0.1799539933930229,0.19610723334215885,0.21778424489270337,0.22988817957261481,0.25508206005885453,0.2739456374600361,0.2942507338518787,0.3071184353642391,0.2997301368808316,0.3041603969259537,0.31553158189152547,0.33549992307166193,0.3492164607240678,0.3556609877709592,0.35733570047397656,0.3452915495661665,0.35525656403630995,0.3573672127721558,0.36606487204701166,0.3802289637043466,0.38467838257522496,0.39923845064538316,0.4029704612804565,0.3962258320227175,0.37757223474516827,0.37301667886209655,0.37048898476858483,0.3655998969895181,0.3711355868548309,0.36945000074435425,0.3860439115238856,0.39241884617885414,0.38331638968569215,0.3774817108526566,0.37778244649578824,0.38401996368068303,0.368639648290384,0.3615878297308785,0.3686079152077215,0.37333707167483665,0.35796627335261716,0.3590291913417577,0.3373612026736404,0.3312071976148904,0.3262851084925869,0.31470959022003975,0.29613963838494534,0.27923155167109137,0.27883347605831643,0.2770975528759999,0.26405841208960035
-0.014476455091168829,-0.02997305936309993,-0.06296133591947999,-0.08321126132934377,-0.10543143326838662,-0.11275460386849291,-0.12602522201693375,-0.12395832401320248,-0.11651741340064832,-0.11649043460129413,-0.1192098732639965,-0.11514483047949085,-0.10477976520490545,-0.10717289725951937,-0.10582488221761753,-0.09999544918494119,-0.08105956886076973,-0.07847964848802691,-0.0794167191082186,-0.07383359879782403,-0.07177794044530493,-0.06390488129589138,-0.05985343641983057,-0.06225027432352657,-0.06813468737592637,-0.061619667740169574,-0.05851623929694416,-0.05992829712008103,-0.05583699163171889,-0.054495120322086754,-0.05288096642474739,-0.0629091220392113,-0.06135124856090244,-0.06256445954659234,-0.049180340757255,-0.048514458610426275,-0.04550893392350572,-0.0304737729765609,-0.026650554243544858,-0.01317223302763968,-0.00203131568650162,0.00037418350098757276,0.016776757698835257,0.028650389016764564,0.049938416546570025,0.07712649392436423,0.11973161849381071,0.14192729394572023,0.16900465312917287,0.18260789818981005,0.19742105843426258,0.22286593665096452,0.23444291078759488,0.2466706117631869,0.25920890827426313,0.2826361940132578,0.28463904441956633,0.3026270904701207,0.3022767108315025,0.3126645726863245,0.33102231390606124,0.3393342785401815,0.3384227473160819,0.3410308240776524,0.34133703487185296,0.3428879067772793,0.3523618377175512,0.35768657722412556,0.3808951641417694,0.39410781828461844,0.39579365485731766,0.40275916605399087,0.4053983087085701,0.3895161297997528,0.3833947786342755,0.36892996785030585,0.36139064191249665,0.36607349218355906,0.36360704079936357,0.37662936025046706,0.3769099185937251,0.37830528006134817,0.36332074479569926,0.3722482050359592,0.36113449086795274,0.3591155467612533,0.3735977259053688,0.3766538184233355,0.3678118791657231,0.3579861452526506,0.3454091144016052,0.33577748161472354,0.3234164541778401,0.3227625173109696,0.30762169465826206,0.3051552960197804,0.2933110884044822,0.2947237688954979,0.28280910489814604,0.2703402802724727
-0.007716933836933636,-0.037458735488527406,-0.06405120613585272,-0.09042946807333452,-0.11278428719169932,-0.10765735511619944,-0.11892893126119203,-0.11106868202390609,-0.10754481843012643,-0.11053753256843579,-0.11712642257172666,-0.10127225022342963,-0.10599216452910074,-0.09582920929569946,-0.09688910912560139,-0.08305845060999137,-0.06881774955767728,-0.06945080304028216,-0.05788124443615299,-0.06795795785287832,-0.060661128060794246,-0.052480368395388395,-0.06220381019838225,-0.05807102755523174,-0.06488383337525437,-0.056108264363450754,-0.051463108956703335,-0.05642273555742573,-0.05298615574938171,-0.043874502354438516,-0.055793236277197206,-0.058424380498149915,-0.05397061250317539,-0.04204490509770107,-0.03626833138120908,-0.03972128182990268,-0.04431595003036412,-0.026682215501209687,-0.019209740403344458,-0.008842572849584276,0.00948047060243394,0.00959733256868742,0.021726236399872277,0.031095986747605296,0.047322975955389465,0.0866888107412983,0.12454561504314501,0.14981809441881508,0.17710794941078917,0.18980576351727205,0.1994093494707962,0.21561932169221154,0.23547392725581257,0.2513591012302911,0.2646123884762485,0.2665760628495453,0.2680621194827811,0.2971442194526008,0.3043019433429947,0.3070471578351662,0.32585090086871316,0.32527224819750383,0.326405642445789,0.3232516238316027,0.3309908573310166,0.3462646843646888,0.3541849146851004,0.3684291287605764,0.3688559983416055,0.3836812791805844,0.4003746199756921,0.40780960144778267,0.40525023578928565,0.4014302144051728,0.3852526388740092,0.37747721234792414,0.36595868915208013,0.38100193637367746,0.37207945601314185,0.3835131557820863,0.3796308903156016,0.371163689470033,0.3510235318290398,0.3537930577278013,0.3501147371323811,0.36724677135724726,0.3709393890594975,0.36921760303678564,0.37905811491296365,0.35959152857253257,0.34980357257340655,0.3350457797580846,0.3273783076802214,0.3207542932855228,0.31760911052663937,0.3171968835094319,0.30674857023426144,0.2964850972672293,0.29204204261110434,0.27598948433715503
-0.028818496431630026,-0.047179466549402194,-0.06731453175031277,-0.08016380299702601,-0.0912713693948489,-0.10814480782321409,-0.112397943697391,-0.10848929142070157,-0.10139724794572082,-0.0935601846592208,-0.09552890638211166,-0.09192629127423878,-0.09266988472060647,-0.093236417359992,-0.08564476600584064,-0.08915487480282297,-0.07798640603153613,-0.06577310633957145,-0.05581766963878735,-0.060303058264996164,-0.057186728998619804,-0.0537511542281789,-0.06865150662457258,-0.06456191354280025,-0.05673398058219409,-0.05552604112091801,-0.05300474012003044,-0.04661927966801592,-0.04183064638626044,-0.04037656733847554,-0.04821524244723965,-0.04555515357329396,-0.049243604799325894,-0.04171358468107527,-0.03752237955446706,-0.033308381418141145,-0.03860956604934322,-0.024773617791361197,-0.012262226901422214,-0.006785491073212311,-0.0071005629310808265,0.010711860857841284,0.01852246330269801,0.028072600299315912,0.052974820604075525,0.09067008572267031,0.11417381425793076,0.14679109297444273,0.17480036113730063,0.19616974790636285,0.20207669196919437,0.21111463173725803,0.22753141619428327,0.24673350932010724,0.26224709111558114,0.26531227388872797,0.2805872845304448,0.28245699298127946,0.2998269530951928,0.3119171866567276,0.32151183430023283,0.32012863754907017,0.32340751107360555,0.31952315387595276,0.330673204626083,0.3427678321415536,0.36272932823111786,0.3707901086879364,0.37595407670834846,0.3979910709872493,0.3999652735910737,0.39628013725221034,0.40459616251526737,0.39796692758159047,0.396808377725049,0.38308814431497146,0.38637879487850463,0.390969540718248,0.3795469593428222,0.3784981002342023,0.37620035057301465,0.364411472433059,0.3622279793989278,0.35236729540711315,0.3529438836204306,0.3611868936618699,0.3688112555731331,0.3727934675939561,0.37749134290650804,0.37385045994438576,0.36567450945652163,0.34569398070559626,0.3408059214974675,0.3242391192229478,0.31220430007872957,0.3157829750555408,0.30518811340858043,0.29401126199219946,0.287014560645915,0.2704194900744947
-0.0428309510314779,-0.0536836527179359,-0.07746841779489559,-0.08012259113390265,-0.09509805219443035,-0.10353957554257187,-0.09575690883215203,-0.09941409863898151,-0.09514088070550727,-0.07969244075262984,-0.08315911031110684,-0.08823141771688008,-0.08246701290690374,-0.09591701002638299,-0.08972773619464317,-0.08368487008248354,-0.07033281585576803,-0.0650674869563376,-0.058653334479334504,-0.06344755056259474,-0.05281918217527065,-0.06351238016786076,-0.06926627546776774,-0.06899449218387683,-0.0715785492839151,-0.06212143030437211,-0.05259015256677183,-0.04176313806590766,-0.02907233172737689,-0.03618370664977726,-0.03467764226698559,-0.03373350386127974,-0.030319237448469448,-0.030868190428016876,-0.031287141220286675,-0.023436159223580666,-0.02336970385587838,-0.02017857455354947,-0.022205053888193226,-0.014666989501708184,-0.014363733332514932,-0.006029174795664382,0.011118163563162994,0.031287686462365356,0.05102319367071442,0.08396829864304259,0.11031714593482986,0.14865777351649972,0.1835624295281919,0.19941926948754152,0.20226203032416368,0.21712667180409728,0.22457772099994283,0.23782526018354755,0.2532538581786629,0.26647805405690855,0.2872367540843615,0.29223187399048656,0.2974699094262197,0.2973549005589565,0.3091593547845485,0.3175949472392992,0.31977926481294905,0.3320788483814259,0.3301709920700522,0.35659973531081696,0.35815440199073345,0.3699874190038058,0.39286295126404097,0.40202994245873064,0.4041586952156642,0.3967885711504597,0.4011407251564336,0.39795218383274933,0.39672029704561845,0.4047142521196913,0.4091525959399812,0.39857088254578416,0.38921655572605024,0.3820220507174755,0.3679036641248565,0.36761641996286565,0.3565237677440541,0.36419359745415236,0.3736253105286979,0.3768908309786666,0.373984040176253,0.3775262336567284,0.3846010852816346,0.3800626429160053,0.3629082883935286,0.35799368270663257,0.3501725295733211,0.3402054910319814,0.31601808648508767,0.31519689167988846,0.30502929664784645,0.30180953399039234,0.2949613911538626,0.2838808582588653
